20000	20000	20000	20000	20000	20000	1245	1245	1245	1245	1250	1250	1255	1255	1259	1259	1259	1264	1264	1264	1264	1268	1268	1268	1268	1268	1273	1273	1268	1268	1268	1273	1273	1273	1278	1278	1278	1283	1283	1283	1283	1283	1283	1288	1288	1292	1292	1292	1292	1292	1292	1292	1292	1292	1292	1297	1297	1302	1302	1307	1307	1307	1307	1312	1307	1307	1307	1307	1307	1312	1312	1312	1312	1312	1312	1317	1317	1317	1317	1322	1322	1322	1322	1322	1328	1333	1338	1338	1019	1019	1019	1022	1019	1019	1019	1022	1022	1022	1022	1028	1028	1031	1031	1031	1031	1031	1031	1031	1031	1031	1031	1034	1034	1034	1365	1365	1365	1365	1365	1370	1370	1370	1370	1376	1381	1381	1041	1041	1041	1044	1044	1044	1044	1044	1044	1047	1044	1044	1047	1047	1047	1047	1047	1047	1404	1410	1410	1410	1410	1410	1415	1415	1415	1415	1421	1421	1421	1421	1421	1427	1427	1427	1433	1433	1433	1433	1433	1439	1439	1445	1445	1445	1445	1445	1452	1452	1452	1452	1452	1452	1458	1458	1464	1464	1470	1470	1470	1470	1470	1470	1477	1477	1477	1477	1483	1489	1489	1489	1489	1489	1489	1496	1496	1496	1503	1503	1503	1503	1503	1509	1509	1503	1126	1126	1126	1126	1126	1126	1130	1126	1126	1126	1126	1126	1126	1126	1130	1130	1134	1134	1134	1134	1134	1134	1134	1130	1130	1134	1138	1138	1141	1141	1145	1145	1145	1145	1145	1145	1149	1149	1149	1149	1149	1149	1153	1153	1153	1153	1157	1157	1157	1161	1161	1165	1165	1165	1165	1165	1169	1169	1169	1169	1173	1177	1181	1185	1185	1185	1189	1189	1189	1197	1197	1197	1639	1639	1639	1639	1632	1632	1632	1639	1639	1639	1639	1647	1647	1647	1647	1647	1655	1655	1655	1655	1663	1663	1663	1663	20000	20000	20000	20000	1060	1057	1054	1054	1050	1050	1047	1047	1044	1038	1038	1034	1034	1031	1031	1031	1031	1025	1022	1022	1022	1019	1016	1016	959	959	959	954	948	946	946	943	940	940	938	935	933	930	930	928	925	923	920	918	915	915	915	913	913	913	910	908	908	906	906	903	903	901	901	898	896	896	896	896	894	894	894	891	891	891	889	889	887	887	885	885	885	885	882	882	882	880	878	878	875	875	875	875	875	875	875	875	875	875	875	880	880	882	882	885	885	885	885	885	887	885	885	885	882	880	880	880	878	878	878	878	878	878	878	878	878	878	878	878	880	880	880	880	880	880	880	880	880	880	880	880	880	882	882	882	882	885	885	885	885	885	887	887	891	891	891	891	891	896	898	898	898	901	903	910	918	923	923	928	930	1050	1050	1047	1047	1047	1044	1044	1044	1041	1038	1034	1031	1031	1028	1028	1019	1013	1013	1010	1007	1007	1004	1001	1001	995	992	987	987	984	981	981	978	975	970	967	956	954	951	951	948	948	946	940	940	938	933	930	930	928	923	918	913	910	908	903	901	896	891	891	891	891	891	889	887	887	887	887	887	887	887	889	891	891	894	896	896	896	896	896	896	896	896	20000	20000	20000	20000	20000	20000	20000	20000	20000	20000	20000	20000	20000	20000	20000	20000	2317	2317	2333	2333	2333	2349	2349	2349	2365	2365	2365	2365	2365	2365	2381	2381	2381	2381	2398	2398	2415	2432	20000	20000	20000	20000	20000	20000
20000	20000	20000	20000	20000	20000	1245	1245	1245	1245	1245	1250	1250	1255	1259	1259	1259	1264	1264	1264	1264	1268	1268	1268	1268	1268	1268	1268	1268	1268	1268	1273	1273	1273	1278	1278	1278	1283	1283	1283	1283	1283	1283	1288	1288	1292	1292	1292	1292	1292	1292	1292	1292	1292	1292	1297	1297	1302	1302	1302	1307	1307	1307	1312	1307	1307	1307	1307	1307	1307	1307	1307	1312	1312	1312	1317	1317	1317	1317	1322	1322	1322	1322	1322	1328	1019	1019	1019	1019	1019	1019	1022	1019	1019	1019	1019	1022	1022	1022	1028	1028	1031	1031	1031	1031	1031	1031	1031	1031	1031	1031	1359	1359	1359	1365	1365	1365	1365	1365	1370	1370	1370	1370	1370	1376	1376	1041	1041	1041	1044	1044	1044	1044	1044	1044	1047	1047	1047	1047	1047	1047	1047	1404	1404	1404	1404	1404	1404	1410	1410	1415	1415	1415	1415	1421	1421	1421	1421	1421	1427	1427	1427	1427	1433	1433	1433	1433	1439	1439	1445	1445	1445	1445	1445	1445	1452	1452	1452	1452	1452	1452	1458	1464	1464	1464	1470	1470	1470	1470	1470	1477	1477	1477	1477	1483	1483	1489	1489	1489	1489	1489	1496	1496	1496	1496	1503	1503	1503	1503	1503	1509	1503	1503	1503	1509	1516	1126	1126	1130	1126	1126	1130	1126	1126	1130	1130	1134	1134	1134	1134	1134	1134	1134	1134	1134	1134	1134	1138	1141	1141	1149	1149	1149	1149	1149	1149	1149	1149	1149	1149	1149	1153	1153	1153	1153	1153	1153	1157	1157	1161	1161	1161	1165	1165	1165	1165	1169	1169	1169	1169	1169	1169	1173	1177	1181	1185	1189	1189	1193	1193	1193	1193	1193	1632	1639	1639	1639	1639	1632	1632	1639	1639	1639	1639	1639	1647	1647	1655	1647	1647	1655	1655	1655	1655	1663	1663	1663	1663	20000	20000	20000	20000	1057	1054	1050	1050	1050	1047	1047	1047	1041	1038	1038	1034	1034	1031	1031	1031	1031	1025	1022	1022	1019	1019	1019	1019	959	959	959	954	948	946	943	943	940	940	935	935	933	930	928	928	925	923	920	918	915	915	915	913	913	913	910	908	908	906	903	903	901	901	898	898	896	896	896	894	894	891	891	891	891	889	889	889	887	885	885	885	885	882	882	882	880	880	878	878	875	875	875	873	873	875	875	875	875	875	875	880	880	882	882	882	885	885	885	885	887	887	885	885	885	882	880	880	880	878	878	878	878	878	875	875	875	878	878	878	878	880	880	880	880	880	880	880	880	880	880	880	880	882	882	882	882	885	885	885	887	887	887	889	891	891	891	891	894	896	898	898	898	901	903	913	918	923	923	928	928	1050	1050	1047	1047	1044	1044	1044	1041	1041	1038	1034	1031	1031	1028	1025	1019	1013	1013	1010	1007	1004	1004	1001	998	995	992	987	984	984	981	981	978	973	967	964	956	954	951	948	948	946	943	940	940	938	930	930	930	928	923	913	910	908	906	901	901	896	891	891	891	891	889	889	887	887	887	887	887	887	887	889	889	891	894	894	896	896	896	896	896	896	896	20000	20000	20000	20000	20000	20000	20000	20000	20000	20000	20000	20000	20000	20000	20000	2317	2317	2317	2333	2333	2333	2333	2349	2349	2365	2365	2365	2365	2365	2365	2365	2381	2381	2381	2398	2415	2415	2432	20000	20000	20000	20000	20000	20000
20000	20000	20000	20000	20000	20000	1245	1245	1245	1245	1245	1250	1250	1255	1255	1259	1259	1259	1264	1264	1264	1268	1268	1268	1268	1268	1268	1268	1268	1268	1268	1273	1273	1273	1278	1278	1278	1283	1283	1283	1283	1283	1288	1288	1292	1292	1292	1292	1292	1292	1292	1292	1292	1292	1297	1297	1297	1302	1302	1302	1307	1307	1307	1312	1307	1307	1307	1307	1307	1307	1307	1307	1312	1312	1312	1317	1317	1317	1322	1322	1322	1322	1333	1333	1016	1016	1016	1019	1019	1019	1019	1019	1019	1019	1019	1019	1022	1022	1022	1028	1028	1031	1031	1031	1031	1031	1031	1349	1349	1359	1359	1359	1359	1359	1365	1365	1365	1365	1365	1370	1370	1370	1370	1370	1376	1376	1041	1041	1041	1044	1044	1044	1044	1044	1044	1047	1047	1047	1047	1047	1047	1047	1404	1404	1404	1404	1404	1404	1410	1410	1415	1415	1415	1415	1415	1421	1421	1421	1421	1427	1427	1427	1427	1427	1427	1433	1433	1439	1439	1445	1445	1445	1445	1445	1445	1452	1452	1452	1452	1452	1452	1458	1464	1464	1464	1470	1470	1470	1470	1470	1477	1477	1477	1477	1483	1483	1483	1483	1489	1489	1489	1496	1496	1496	1496	1496	1503	1503	1503	1503	1503	1503	1503	1503	1509	1516	1523	1130	1130	1130	1130	1130	1130	1130	1134	1134	1134	1138	1138	1138	1138	1138	1138	1138	1138	1138	1138	1138	1145	1149	1149	1149	1149	1149	1149	1149	1149	1153	1153	1153	1153	1153	1153	1153	1153	1153	1157	1157	1161	1161	1161	1165	1165	1165	1165	1169	1169	1169	1169	1169	1173	1173	1177	1181	1185	1189	1189	1189	1193	1193	1193	1193	1624	1632	1632	1632	1632	1632	1632	1632	1632	1632	1639	1639	1639	1647	1647	1655	1647	1647	1655	1655	1655	1655	1663	1663	1663	1663	1663	20000	20000	20000	1057	1050	1050	1050	1050	1047	1047	1044	1041	1038	1034	1034	1034	1031	1031	1031	1031	1028	1019	1019	1016	1016	1016	1016	959	959	956	948	948	946	943	943	940	940	935	935	933	930	928	925	925	920	918	918	915	915	913	913	913	910	910	908	906	906	903	901	901	901	898	898	896	896	896	894	894	891	891	891	891	889	889	889	887	885	885	885	882	882	882	880	880	880	878	878	875	875	875	873	873	873	873	873	873	873	875	880	880	882	882	882	885	885	885	887	887	887	887	885	885	885	882	882	880	880	880	878	878	878	875	875	875	875	875	875	878	878	878	880	880	880	880	880	880	880	880	880	880	882	882	882	885	885	885	885	887	887	889	889	891	894	891	891	896	896	898	898	898	901	903	915	923	923	925	928	928	1054	1050	1047	1047	1044	1044	1044	1041	1041	1038	1034	1031	1031	1028	1025	1016	1013	1013	1010	1007	1004	1001	998	995	992	989	987	984	981	978	978	975	970	967	962	956	954	951	948	948	943	940	940	938	935	930	930	930	928	923	910	908	906	903	901	898	896	894	891	891	891	889	889	887	887	887	887	887	887	889	889	889	891	894	894	896	896	896	896	896	896	20000	20000	20000	20000	20000	20000	20000	20000	20000	20000	20000	20000	20000	20000	20000	2301	2301	2317	2317	2333	2333	2333	2333	2349	2349	2365	2365	2365	2365	2365	2365	2365	2381	2381	2381	2398	2415	2415	2432	20000	20000	20000	20000	20000	20000
20000	20000	20000	20000	20000	20000	1245	1245	1245	1245	1250	1250	1250	1255	1255	1259	1259	1259	1264	1264	1264	1264	1264	1268	1268	1268	1268	1268	1268	1268	1273	1273	1278	1278	1278	1278	1283	1283	1283	1283	1283	1288	1288	1288	1292	1292	1292	1292	1292	1292	1292	1292	1292	1297	1297	1297	1302	1302	1302	1302	1302	1307	1307	1312	1307	1307	1307	1307	1307	1312	1307	1307	1312	1312	1317	1317	1317	1317	1322	1322	1328	1328	1338	1338	1016	1016	1016	1019	1019	1019	1019	1019	1019	1022	1022	1022	1022	1025	1025	1031	1031	1031	1031	1034	1343	1343	1343	1349	1349	1354	1359	1359	1359	1359	1365	1365	1365	1365	1365	1370	1370	1370	1370	1370	1370	1044	1044	1041	1041	1041	1044	1044	1044	1044	1044	1044	1044	1044	1047	1047	1047	1398	1398	1398	1404	1404	1404	1404	1410	1410	1410	1415	1415	1415	1415	1421	1421	1421	1421	1427	1427	1427	1427	1427	1427	1433	1433	1439	1439	1445	1445	1445	1445	1445	1445	1445	1452	1452	1452	1452	1452	1458	1464	1464	1464	1464	1470	1470	1470	1470	1477	1477	1477	1477	1483	1477	1477	1483	1483	1483	1489	1489	1489	1496	1496	1496	1503	1503	1503	1503	1503	1503	1509	1509	1509	1516	1516	1523	1529	1523	1523	1523	1130	1130	1134	1134	1138	1138	1138	1141	1138	1138	1138	1138	1138	1138	1141	1141	1153	1153	1153	1149	1149	1149	1149	1149	1153	1153	1153	1153	1153	1153	1157	1157	1157	1157	1161	1161	1161	1165	1165	1165	1169	1169	1169	1169	1169	1169	1169	1173	1173	1177	1181	1181	1185	1189	1189	1189	1193	1193	1616	1616	1624	1624	1624	1632	1632	1632	1632	1632	1632	1632	1632	1639	1639	1639	1647	1655	1647	1647	1647	1655	1655	1655	1663	1663	1663	1663	1663	20000	20000	20000	1050	1050	1050	1050	1050	1047	1044	1044	1041	1038	1034	1034	1034	1031	1028	1028	1028	1025	1019	1019	1016	1016	1016	1016	959	959	956	948	948	946	943	943	940	938	935	933	930	928	928	925	923	920	918	915	915	915	913	913	913	910	908	906	906	903	903	901	901	901	898	898	896	896	896	894	894	894	891	891	891	889	889	889	887	885	885	885	882	882	882	880	880	880	878	878	875	875	875	873	873	873	873	873	873	873	875	880	880	882	882	882	885	885	885	885	887	887	887	885	885	885	882	882	880	880	880	878	875	875	875	875	875	875	875	875	875	878	878	878	878	878	880	880	880	880	880	880	880	882	882	882	885	885	885	885	887	887	889	891	891	894	891	891	896	896	898	898	898	901	910	918	923	923	925	928	928	1054	1050	1050	1047	1044	1044	1044	1041	1041	1038	1038	1031	1028	1028	1025	1016	1013	1013	1010	1004	1004	1001	998	995	992	989	984	984	981	975	975	973	970	964	962	956	954	951	948	946	943	940	938	938	935	930	928	928	925	920	910	908	906	903	901	898	896	894	891	891	891	889	889	887	887	887	887	887	887	889	889	889	889	891	894	894	894	894	896	896	896	20000	20000	20000	20000	20000	20000	20000	20000	20000	20000	20000	20000	20000	20000	20000	2301	2301	2317	2317	2333	2333	2333	2333	2349	2349	2365	2365	2365	2365	2365	2365	2381	2381	2381	2398	2398	2415	2432	2432	20000	20000	20000	20000	20000	20000
20000	20000	20000	20000	20000	20000	1245	1245	1245	1245	1250	1250	1255	1255	1259	1259	1259	1259	1264	1264	1264	1264	1264	1268	1268	1268	1268	1268	1268	1268	1273	1273	1278	1278	1278	1278	1278	1278	1283	1283	1283	1288	1288	1288	1292	1292	1292	1292	1292	1292	1297	1297	1297	1297	1297	1297	1297	1297	1302	1302	1302	1307	1307	1312	1312	1307	1307	1307	1307	1312	1307	1307	1312	1312	1317	1317	1317	1317	1322	1322	1322	1328	1333	1333	1013	1013	1013	1016	1016	1016	1019	1019	1019	1022	1022	1022	1022	1025	1025	1031	1031	1031	1034	1034	1343	1343	1343	1349	1349	1354	1359	1359	1359	1359	1365	1365	1365	1365	1365	1370	1370	1370	1370	1370	1370	1044	1044	1041	1041	1041	1041	1044	1044	1044	1044	1044	1044	1044	1047	1047	1047	1398	1398	1398	1404	1404	1404	1404	1410	1410	1410	1415	1415	1415	1415	1421	1421	1421	1421	1427	1427	1427	1427	1427	1427	1433	1433	1439	1439	1445	1445	1445	1445	1445	1445	1445	1452	1452	1452	1452	1458	1458	1458	1464	1464	1464	1464	1470	1470	1470	1470	1477	1477	1477	1477	1477	1477	1483	1483	1483	1489	1489	1489	1496	1496	1496	1503	1503	1503	1503	1503	1503	1503	1509	1509	1516	1516	1523	1523	1523	1523	1516	1516	1516	1516	1516	1516	1516	1516	1516	1516	1141	1141	1141	1141	1529	1529	1536	1536	1153	1153	1149	1149	1149	1149	1149	1153	1153	1153	1157	1157	1157	1157	1161	1161	1165	1165	1165	1165	1169	1169	1169	1169	1169	1169	1169	1169	1169	1169	1173	1173	1177	1181	1185	1189	1189	1189	1189	1616	1616	1616	1616	1616	1616	1624	1632	1632	1632	1632	1632	1632	1632	1632	1639	1639	1639	1647	1647	1647	1647	1647	1647	1655	1655	1663	1663	1655	1655	1655	20000	20000	20000	20000	1050	1050	1050	1047	1047	1044	1041	1038	1038	1034	1034	1031	1031	1028	1028	1028	1025	1019	1019	1019	1016	1016	1016	959	956	954	951	948	946	943	940	940	938	935	933	930	928	925	925	923	920	918	915	915	915	913	913	913	910	908	906	906	903	901	898	898	898	898	896	896	896	896	894	894	891	891	889	889	889	889	889	887	885	885	885	882	882	882	882	882	880	878	878	875	875	875	873	873	873	873	873	873	873	875	880	880	882	882	882	885	885	885	885	887	887	887	885	885	885	882	882	880	880	880	878	875	875	875	875	875	875	875	875	875	875	875	878	878	878	878	878	878	880	880	880	880	882	882	882	885	885	885	885	887	887	889	891	891	894	891	891	896	896	898	901	901	903	915	923	923	923	925	928	928	1054	1050	1050	1047	1044	1044	1044	1041	1041	1038	1034	1031	1028	1025	1025	1016	1013	1013	1010	1004	1004	998	998	995	992	989	984	981	978	975	975	973	970	964	962	959	954	948	948	946	940	938	935	935	933	928	928	928	925	918	908	908	906	903	901	898	898	894	891	891	891	889	889	887	887	887	887	887	887	889	889	889	889	891	891	894	894	894	894	896	896	20000	20000	20000	20000	20000	20000	20000	20000	20000	20000	20000	20000	20000	20000	20000	2301	2301	2317	2317	2333	2333	2333	2333	2349	2349	2365	2365	2365	2365	2365	2365	2381	2381	2381	2398	2398	2415	2415	2432	20000	20000	20000	20000	20000	20000
20000	20000	20000	20000	20000	20000	1245	1245	1245	1245	1250	1250	1250	1255	1255	1255	1255	1259	1259	1259	1264	1264	1264	1264	1268	1268	1268	1268	1268	1268	1273	1273	1278	1278	1278	1278	1278	1278	1283	1283	1283	1288	1288	1288	1292	1292	1292	1292	1292	1297	1297	1297	1297	1297	1297	1297	1297	1297	1302	1302	1302	1307	1307	1312	1312	1307	1307	1307	1307	1312	1312	1312	1312	1317	1317	1317	1317	1317	1322	1322	1322	1322	1322	1322	1322	1013	1013	1016	1016	1016	1019	1019	1019	1022	1022	1022	1025	1028	1028	1034	1034	1034	1034	1338	1338	1343	1343	1349	1354	1359	1359	1359	1359	1365	1365	1365	1365	1365	1365	1370	1370	1370	1370	1370	1038	1041	1041	1041	1041	1041	1041	1041	1041	1044	1044	1044	1044	1044	1047	1047	1410	1410	1404	1404	1404	1404	1404	1404	1410	1410	1415	1415	1415	1415	1415	1421	1421	1421	1421	1427	1427	1427	1427	1427	1427	1433	1433	1439	1439	1445	1445	1445	1445	1445	1445	1445	1452	1452	1452	1452	1458	1458	1458	1458	1458	1458	1464	1464	1464	1470	1470	1477	1477	1477	1477	1477	1477	1483	1483	1483	1489	1489	1489	1496	1496	1496	1503	1503	1503	1503	1503	1503	1503	1503	1509	1509	1516	1523	1523	1516	1516	1516	1516	1516	1516	1516	1516	1516	1516	1516	1516	1523	1523	1523	1536	1536	1536	1536	1536	1543	1543	1149	1149	1149	1149	1149	1153	1153	1157	1157	1157	1157	1161	1161	1161	1161	1165	1165	1165	1169	1169	1169	1169	1169	1173	1173	1173	1169	1169	1173	1177	1181	1185	1185	1193	1193	1197	1616	1616	1616	1616	1616	1616	1616	1624	1624	1632	1632	1632	1632	1639	1639	1639	1639	1639	1639	1647	1647	1647	1647	1647	1647	1655	1655	1663	1655	1655	1655	1655	1655	20000	20000	20000	1050	1050	1050	1047	1044	1041	1041	1038	1038	1034	1034	1031	1031	1028	1025	1025	1025	1019	1019	1016	1016	1016	956	956	956	954	951	948	946	943	940	938	935	933	933	930	928	925	925	923	920	918	915	915	915	913	913	910	908	906	906	906	903	901	898	898	898	896	896	896	896	894	894	891	891	891	889	889	889	889	889	887	887	885	885	885	885	882	882	882	880	878	878	875	875	875	873	873	873	873	873	873	873	875	880	880	882	882	882	885	885	885	885	885	887	887	885	885	885	882	882	882	882	880	880	878	878	875	875	875	875	875	875	875	875	875	875	878	878	878	878	878	878	880	880	880	882	882	885	885	885	885	885	887	889	889	891	891	894	891	891	894	896	898	901	901	908	915	923	923	923	928	930	930	1050	1050	1050	1047	1044	1044	1044	1041	1041	1038	1034	1031	1028	1025	1022	1013	1013	1010	1007	1004	1001	998	995	995	992	989	984	981	978	975	973	973	970	967	964	959	951	948	946	943	940	938	935	935	933	928	928	928	923	915	908	908	903	903	901	898	896	894	891	891	891	889	889	887	887	887	887	887	887	889	889	889	889	889	891	891	891	891	891	894	891	891	20000	20000	20000	20000	20000	20000	20000	20000	20000	20000	20000	20000	20000	2317	2317	2317	2317	2317	2333	2333	2333	2333	2349	2349	2365	2365	2365	2365	2365	2381	2381	2381	2381	2398	2398	2415	2415	2432	20000	20000	20000	20000	20000	20000
20000	20000	20000	20000	20000	20000	1245	1245	1245	1245	1250	1250	1250	1250	1255	1255	1255	1259	1259	1259	1264	1264	1264	1264	1268	1268	1268	1268	1268	1268	1273	1273	1278	1278	1278	1278	1278	1278	1283	1283	1283	1288	1288	1288	1288	1288	1288	1292	1292	1292	1297	1297	1297	1297	1297	1297	1297	1297	1302	1302	1307	1307	1307	1312	1307	1307	1307	1307	1307	1307	1307	1307	1312	1312	1317	1317	1317	1317	1322	1322	1322	1322	1322	1322	1328	1328	1016	1016	1016	1016	1019	1019	1019	1022	1022	1025	1028	1028	1028	1034	1034	1034	1038	1338	1338	1343	1343	1349	1354	1359	1359	1359	1365	1365	1365	1365	1365	1365	1370	1370	1370	1370	1370	1370	1038	1038	1038	1041	1041	1041	1041	1041	1041	1044	1044	1044	1044	1044	1044	1410	1410	1410	1404	1404	1404	1404	1404	1404	1404	1410	1410	1415	1415	1415	1415	1421	1421	1421	1421	1421	1427	1427	1427	1427	1427	1433	1433	1439	1439	1439	1445	1445	1445	1445	1445	1445	1452	1452	1452	1452	1458	1458	1458	1458	1458	1458	1464	1464	1464	1470	1470	1477	1477	1477	1477	1477	1477	1483	1483	1483	1489	1489	1496	1496	1496	1496	1503	1503	1503	1503	1503	1503	1503	1503	1509	1509	1516	1523	1523	1516	1516	1516	1516	1516	1516	1523	1516	1516	1516	1523	1523	1529	1529	1536	1536	1536	1536	1536	1543	1543	1543	1543	1543	1153	1149	1149	1153	1153	1157	1161	1157	1157	1161	1161	1161	1161	1165	1165	1165	1579	1169	1169	1169	1169	1173	1173	1173	1173	1177	1181	1181	1189	1189	1193	1193	1197	1616	1616	1616	1616	1616	1616	1616	1616	1624	1624	1632	1632	1632	1632	1639	1639	1639	1639	1639	1639	1647	1647	1647	1647	1647	1647	1655	1655	1655	1655	1655	1655	1655	20000	20000	20000	1047	1047	1047	1047	1047	1044	1041	1041	1038	1034	1034	1034	1031	1031	1028	1025	1025	1025	1019	1016	1013	1013	1016	956	956	956	954	951	948	946	943	938	935	935	933	930	928	925	925	923	923	920	918	915	915	915	913	913	910	908	906	906	903	903	901	898	898	896	896	896	896	896	894	894	891	889	889	887	887	887	887	887	887	885	885	885	885	885	885	882	882	880	878	878	875	875	875	875	873	873	873	873	873	873	875	878	880	882	882	882	882	885	885	885	885	885	887	885	885	885	882	882	882	882	882	880	878	878	875	875	875	875	875	875	875	875	875	875	875	875	878	878	878	878	880	880	882	882	882	885	885	885	885	887	887	889	889	891	891	891	891	891	894	896	898	901	903	910	918	923	925	925	928	930	930	1047	1047	1047	1044	1044	1044	1041	1041	1038	1038	1034	1031	1028	1025	1022	1013	1013	1010	1007	1004	1001	998	995	995	992	989	984	981	975	973	973	970	970	964	964	959	951	946	946	943	940	938	935	935	933	930	928	928	923	913	908	908	903	903	901	898	896	894	891	891	891	889	889	887	887	887	887	887	887	887	889	889	889	889	889	889	889	889	891	891	891	891	20000	20000	20000	20000	20000	20000	20000	20000	20000	20000	20000	20000	20000	2301	2301	2317	2317	2317	2333	2333	2333	2333	2349	2349	2365	2365	2365	2365	2365	2381	2381	2381	2381	2398	2398	2415	2415	2415	20000	20000	20000	20000	20000	20000
20000	20000	20000	20000	20000	20000	1245	1245	1245	1245	1250	1250	1250	1250	1255	1255	1255	1255	1259	1259	1264	1264	1264	1264	1264	1268	1268	1268	1268	1268	1273	1278	1278	1278	1278	1278	1283	1283	1283	1283	1283	1288	1288	1288	1288	1288	1288	1292	1292	1292	1297	1297	1297	1297	1297	1297	1302	1302	1302	1302	1307	1307	1307	1307	1307	1307	1307	1307	1307	1307	1307	1307	1312	1312	1317	1317	1317	1317	1322	1322	1322	1322	1322	1322	1328	1333	1333	1016	1016	1016	1019	1019	1019	1022	1022	1025	1028	1031	1034	1038	1038	1038	1343	1338	1338	1343	1343	1354	1354	1359	1359	1359	1365	1365	1365	1365	1365	1365	1370	1370	1370	1370	1370	1038	1038	1038	1038	1041	1041	1041	1041	1041	1041	1041	1041	1041	1041	1044	1044	1410	1410	1410	1404	1404	1404	1404	1404	1404	1404	1410	1410	1410	1415	1415	1415	1415	1415	1421	1421	1421	1427	1427	1427	1427	1433	1433	1433	1439	1439	1439	1445	1445	1445	1445	1445	1445	1452	1452	1452	1452	1458	1458	1458	1458	1458	1458	1464	1464	1470	1470	1470	1477	1477	1477	1477	1477	1477	1483	1483	1483	1489	1489	1496	1496	1496	1496	1503	1503	1503	1503	1503	1503	1509	1509	1509	1516	1516	1523	1523	1516	1516	1516	1516	1516	1523	1523	1523	1523	1523	1523	1529	1529	1536	1543	1543	1543	1543	1543	1543	1543	1543	1543	1543	1543	1550	1550	1550	1161	1161	1165	1165	1161	1161	1161	1161	1165	1165	1579	1579	1579	1586	1586	1586	1594	1594	1594	1586	1586	1586	1594	1601	1601	1609	1609	1609	1609	1609	1616	1616	1616	1616	1616	1616	1616	1624	1624	1632	1632	1632	1632	1632	1632	1639	1639	1639	1639	1647	1647	1639	1639	1647	1647	1655	1655	1655	1655	1655	1655	1655	20000	20000	20000	1047	1047	1047	1047	1047	1044	1041	1038	1038	1034	1034	1034	1031	1031	1028	1025	1025	1025	1016	1013	1013	1010	956	956	956	956	954	951	948	943	940	938	935	935	933	930	928	925	925	923	923	920	918	918	915	915	913	913	910	908	906	906	903	901	901	898	898	896	896	896	896	894	894	894	891	889	889	887	887	887	887	887	885	885	885	885	885	885	885	882	882	880	880	878	875	875	875	875	873	873	873	873	873	873	875	878	880	882	882	882	882	885	885	885	885	885	887	885	885	882	882	882	882	882	880	880	878	878	875	875	875	875	875	875	875	875	875	875	875	875	875	878	878	878	880	880	882	882	885	885	885	885	885	887	887	889	889	891	891	891	891	891	894	896	898	903	908	913	918	923	923	923	928	928	1047	1047	1047	1047	1044	1044	1044	1041	1041	1038	1034	1031	1028	1028	1025	1022	1013	1013	1010	1007	1001	998	995	995	995	992	989	984	981	975	973	973	970	970	964	964	959	951	946	946	943	940	938	938	935	933	928	928	928	925	913	910	908	903	901	901	898	896	894	891	891	891	889	889	887	887	887	889	887	887	887	889	889	889	889	889	889	889	889	891	891	891	891	20000	20000	20000	20000	20000	20000	20000	20000	20000	20000	20000	20000	20000	2301	2301	2301	2301	2301	2333	2349	2349	2333	2333	2349	2365	2365	2365	2365	2365	2381	2381	2381	2381	2398	2398	2415	2415	2415	20000	20000	20000	20000	20000	20000
20000	20000	20000	20000	20000	20000	1245	1245	1245	1245	1250	1250	1250	1250	1250	1250	1255	1255	1259	1259	1264	1264	1264	1264	1264	1268	1268	1268	1268	1268	1273	1278	1278	1278	1283	1283	1283	1283	1283	1283	1283	1288	1288	1288	1288	1288	1288	1292	1292	1292	1292	1292	1292	1297	1297	1297	1297	1302	1302	1302	1302	1307	1307	1307	1307	1307	1307	1307	1307	1307	1307	1312	1312	1317	1317	1317	1322	1322	1322	1322	1322	1322	1328	1328	1328	1333	1333	1328	1019	1019	1019	1019	1019	1022	1025	1025	1028	1034	1343	1343	1343	1343	1343	1343	1343	1343	1349	1354	1359	1359	1359	1365	1365	1365	1365	1365	1365	1365	1370	1370	1370	1370	1370	1038	1038	1038	1038	1041	1041	1041	1041	1041	1041	1041	1041	1041	1041	1044	1044	1410	1410	1410	1404	1404	1404	1404	1404	1404	1404	1410	1410	1410	1410	1410	1415	1415	1415	1415	1421	1421	1427	1427	1427	1427	1433	1433	1439	1439	1439	1439	1445	1445	1445	1445	1445	1445	1445	1452	1452	1452	1458	1458	1458	1458	1464	1464	1464	1470	1470	1470	1470	1477	1477	1477	1477	1477	1477	1483	1483	1483	1489	1489	1496	1496	1496	1496	1503	1503	1503	1503	1503	1503	1509	1509	1509	1516	1516	1523	1523	1516	1516	1516	1516	1523	1523	1523	1523	1523	1523	1523	1529	1529	1536	1543	1543	1543	1543	1543	1543	1543	1543	1543	1543	1543	1550	1550	1550	1550	1550	1564	1572	1161	1161	1161	1165	1579	1579	1579	1579	1586	1586	1586	1586	1594	1594	1594	1594	1594	1594	1594	1601	1601	1609	1609	1609	1609	1609	1616	1616	1616	1616	1616	1616	1616	1616	1624	1632	1632	1632	1632	1632	1632	1639	1639	1639	1639	1639	1639	1639	1639	1639	1647	1655	1655	1655	1655	1655	1655	20000	20000	20000	20000	1047	1047	1047	1044	1044	1041	1038	1038	1034	1034	1031	1028	1028	1028	1025	1025	1025	1022	1013	1013	1013	1010	956	956	956	956	954	951	948	943	940	935	935	935	933	933	928	925	925	923	923	920	918	918	915	915	913	913	910	908	906	906	903	901	901	898	898	896	896	896	896	894	894	894	891	891	889	887	887	887	887	887	885	885	885	885	885	885	885	882	882	882	880	878	875	875	875	875	873	873	873	873	873	873	875	875	880	880	880	882	882	885	885	885	885	885	887	885	885	882	882	882	882	882	880	880	878	878	875	875	875	875	875	875	875	873	873	875	875	875	875	878	878	880	880	882	882	885	885	885	885	885	885	887	887	889	889	891	891	891	891	891	896	898	901	903	908	915	918	923	923	923	928	928	1047	1047	1047	1047	1044	1044	1041	1041	1038	1038	1034	1031	1028	1025	1022	1016	1010	1010	1007	1004	1001	998	995	995	995	992	989	984	984	975	973	973	970	970	964	964	959	951	946	946	943	940	938	938	935	933	928	928	928	918	915	910	908	903	901	901	898	898	894	889	889	891	889	889	887	887	887	889	889	889	889	887	887	889	889	889	889	889	889	891	891	891	894	20000	20000	20000	20000	20000	20000	20000	20000	20000	20000	20000	20000	20000	2301	2301	2301	2301	2301	2333	2349	2349	2333	2333	2349	2365	2365	2365	2365	2365	2381	2381	2381	2398	2398	2398	2415	2415	2415	20000	20000	20000	20000	20000	20000
20000	20000	20000	20000	20000	20000	1245	1245	1245	1245	1250	1250	1250	1250	1250	1250	1255	1255	1259	1259	1264	1264	1264	1264	1264	1268	1268	1268	1268	1268	1273	1278	1278	1278	1283	1283	1283	1283	1283	1283	1283	1288	1288	1288	1288	1288	1288	1292	1292	1292	1292	1292	1292	1297	1297	1297	1297	1302	1302	1302	1302	1307	1307	1307	1307	1307	1307	1307	1307	1307	1307	1312	1312	1312	1312	1317	1317	1317	1322	1322	1322	1322	1322	1328	1328	1328	1328	1328	1328	1328	1328	1328	1333	1031	1031	1343	1343	1343	1343	1343	1343	1343	1343	1343	1343	1349	1349	1354	1359	1359	1359	1359	1365	1365	1365	1365	1365	1370	1376	1376	1376	1376	1038	1038	1038	1038	1038	1041	1041	1041	1041	1041	1041	1044	1044	1044	1044	1044	1410	1410	1410	1410	1404	1404	1404	1404	1404	1404	1404	1410	1410	1410	1410	1410	1410	1410	1415	1415	1415	1421	1427	1427	1427	1433	1433	1433	1439	1439	1439	1439	1445	1445	1445	1445	1445	1445	1445	1452	1452	1452	1458	1458	1458	1464	1464	1464	1464	1470	1470	1470	1470	1477	1477	1477	1477	1477	1477	1483	1483	1483	1489	1489	1496	1496	1496	1496	1503	1503	1503	1503	1509	1509	1509	1509	1516	1516	1516	1523	1523	1516	1516	1516	1516	1516	1523	1523	1523	1523	1523	1523	1536	1536	1536	1536	1543	1543	1543	1543	1543	1543	1543	1543	1550	1550	1550	1550	1550	1550	1557	1564	1572	1572	1572	1572	1572	1579	1579	1579	1579	1579	1586	1586	1586	1586	1594	1594	1594	1594	1594	1601	1601	1601	1609	1609	1609	1616	1616	1616	1616	1616	1616	1616	1616	1616	1616	1624	1632	1632	1632	1632	1632	1632	1639	1639	1639	1639	1639	1639	1639	1639	1639	1647	1655	1655	1655	1655	1655	1655	20000	20000	20000	1050	1047	1047	1044	1044	1044	1041	1038	1038	1034	1031	1028	1028	1028	1025	1025	1025	1022	1022	1013	1013	1010	1010	956	956	956	954	954	951	948	943	940	935	935	935	933	933	928	925	925	923	923	920	918	918	915	915	913	913	910	908	906	903	903	901	901	898	898	896	896	896	896	894	894	894	891	891	889	887	887	887	887	887	885	885	885	885	885	885	885	885	882	882	880	878	875	875	875	875	873	873	873	873	873	873	875	875	878	880	880	882	882	885	885	885	885	885	885	885	885	885	885	882	882	882	882	880	880	880	878	878	875	875	875	875	875	873	873	875	875	875	875	878	880	880	882	882	882	882	885	885	885	885	885	887	887	889	889	891	891	891	891	891	896	898	901	903	908	915	918	923	923	923	925	925	1047	1047	1047	1047	1044	1044	1041	1041	1038	1034	1031	1031	1028	1022	1019	1016	1010	1010	1007	1004	1001	998	995	995	995	989	987	984	978	975	973	970	970	967	964	962	956	951	946	946	943	940	938	935	935	930	928	928	928	918	910	910	906	903	901	901	896	894	891	889	889	889	889	889	887	887	887	889	889	889	889	887	887	887	889	889	889	889	889	891	891	894	894	894	20000	20000	20000	20000	20000	20000	20000	20000	20000	20000	20000	20000	2317	2317	2317	2317	2317	2333	2349	2349	2349	2349	2349	2349	2365	2365	2365	2365	2381	2381	2381	2381	2398	2398	2415	2415	2415	20000	20000	20000	20000	20000	20000
20000	20000	20000	20000	20000	20000	1245	1245	1245	1250	1250	1250	1250	1250	1255	1255	1255	1255	1259	1259	1264	1264	1264	1264	1264	1268	1268	1268	1268	1268	1268	1273	1273	1278	1278	1278	1283	1283	1283	1283	1283	1283	1288	1288	1288	1288	1288	1288	1288	1292	1292	1292	1292	1297	1297	1297	1297	1302	1302	1302	1307	1307	1307	1307	1307	1307	1307	1307	1307	1307	1307	1312	1312	1312	1312	1317	1317	1317	1322	1322	1322	1322	1322	1322	1328	1328	1328	1328	1328	1328	1328	1328	1333	1338	1338	1338	1338	1343	1343	1343	1343	1343	1343	1343	1343	1349	1349	1354	1359	1359	1359	1359	1359	1365	1365	1365	1365	1370	1376	1376	1376	1376	1038	1038	1038	1038	1038	1041	1041	1041	1041	1041	1044	1044	1044	1044	1398	1398	1398	1398	1404	1404	1398	1398	1404	1404	1404	1404	1410	1410	1410	1410	1410	1410	1410	1410	1415	1415	1415	1421	1427	1427	1427	1433	1433	1433	1439	1439	1439	1439	1445	1445	1445	1445	1445	1445	1452	1452	1452	1452	1458	1458	1464	1464	1464	1464	1464	1470	1470	1470	1470	1477	1477	1477	1477	1483	1483	1483	1489	1489	1489	1489	1496	1496	1496	1496	1503	1503	1503	1503	1509	1509	1509	1516	1516	1516	1516	1523	1523	1516	1516	1516	1516	1516	1523	1523	1523	1523	1523	1523	1536	1536	1536	1536	1543	1543	1543	1543	1543	1543	1543	1543	1550	1550	1550	1550	1550	1550	1557	1564	1564	1572	1572	1572	1572	1572	1572	1579	1579	1579	1579	1586	1586	1586	1594	1594	1594	1594	1594	1601	1601	1601	1609	1609	1609	1609	1609	1609	1609	1609	1616	1616	1616	1616	1616	1624	1632	1632	1632	1632	1632	1632	1639	1639	1639	1639	1639	1639	1639	1639	1639	1639	1647	1655	1655	1655	1655	20000	20000	20000	20000	1050	1047	1047	1044	1041	1041	1041	1038	1034	1031	1028	1028	1025	1025	1025	1025	1022	1022	1019	1013	1010	1010	1010	956	956	956	954	951	948	946	943	940	938	935	935	933	930	928	925	923	923	923	920	918	918	915	915	913	910	908	906	906	903	903	901	901	898	898	896	896	896	896	894	894	894	891	891	889	889	887	887	887	887	885	885	885	885	885	885	885	885	882	882	880	878	875	873	873	873	873	873	873	873	873	873	875	875	878	880	880	882	882	885	885	885	885	885	885	885	885	885	885	882	882	882	882	880	880	880	880	880	878	875	875	875	875	875	875	875	875	875	875	878	880	880	880	882	882	882	885	885	885	885	885	887	887	889	889	891	891	894	894	894	896	898	901	906	910	915	918	920	923	923	925	925	1047	1047	1047	1047	1044	1041	1041	1038	1034	1031	1028	1028	1025	1019	1019	1016	1010	1007	1007	1004	998	998	995	995	995	989	984	984	975	973	970	970	967	967	962	956	954	948	946	943	940	938	938	935	935	930	928	928	925	913	910	908	906	901	901	898	894	891	889	887	887	889	889	889	887	887	887	889	889	887	887	887	887	887	887	889	889	889	889	891	891	891	891	894	20000	20000	20000	20000	20000	20000	20000	20000	20000	20000	20000	20000	2333	2333	2333	2317	2317	2333	2349	2349	2333	2333	2349	2349	2365	2365	2365	2365	2381	2381	2381	2381	2398	2398	2398	2398	2415	20000	20000	20000	20000	20000	20000
20000	20000	20000	20000	20000	20000	1245	1245	1245	1250	1250	1250	1250	1250	1255	1255	1255	1259	1259	1264	1264	1264	1264	1268	1268	1268	1268	1268	1268	1268	1268	1273	1273	1278	1278	1278	1283	1283	1283	1283	1283	1283	1288	1288	1288	1288	1288	1288	1288	1292	1292	1292	1292	1297	1297	1297	1297	1302	1302	1302	1307	1307	1307	1312	1307	1307	1307	1307	1307	1307	1312	1312	1312	1312	1312	1317	1317	1317	1322	1322	1322	1322	1322	1322	1322	1328	1328	1328	1328	1328	1333	1333	1333	1338	1338	1338	1338	1343	1343	1343	1343	1343	1343	1343	1343	1349	1354	1354	1359	1359	1359	1359	1359	1365	1365	1365	1365	1370	1381	1381	1381	1028	1034	1034	1034	1034	1034	1034	1038	1038	1041	1044	1044	1044	1044	1398	1398	1398	1398	1398	1398	1404	1398	1398	1398	1404	1404	1404	1410	1410	1410	1410	1410	1410	1410	1410	1415	1415	1415	1421	1427	1427	1427	1433	1433	1433	1433	1439	1439	1439	1445	1445	1445	1445	1445	1445	1445	1452	1452	1452	1458	1458	1464	1464	1464	1464	1464	1470	1470	1470	1470	1477	1477	1477	1477	1483	1483	1483	1489	1489	1489	1489	1496	1496	1496	1496	1503	1503	1503	1503	1509	1509	1516	1516	1516	1516	1516	1523	1523	1516	1516	1516	1516	1516	1523	1523	1523	1523	1523	1523	1529	1536	1536	1536	1543	1543	1543	1543	1543	1543	1550	1550	1550	1550	1550	1550	1550	1550	1557	1564	1564	1564	1564	1572	1572	1572	1572	1579	1579	1579	1579	1586	1586	1586	1594	1594	1594	1594	1594	1601	1601	1601	1609	1609	1609	1609	1609	1609	1609	1609	1609	1616	1616	1616	1616	1624	1632	1632	1632	1632	1632	1632	1639	1639	1639	1639	1639	1639	1639	1639	1639	1639	1647	1655	1655	1655	1655	20000	20000	20000	1047	1047	1047	1047	1044	1041	1041	1038	1038	1034	1031	1028	1028	1025	1025	1025	1022	1022	1022	1016	1010	1007	1007	1007	959	956	956	954	951	948	943	940	938	938	935	935	933	930	928	925	923	923	923	920	918	918	915	913	913	910	908	906	906	903	903	901	901	898	898	896	896	896	894	894	894	894	891	889	889	889	887	887	887	887	885	885	885	885	885	885	885	885	882	882	880	878	875	873	873	873	873	873	873	873	873	873	875	875	878	878	880	882	882	882	885	885	885	885	885	885	885	885	885	882	882	882	882	882	880	880	880	880	878	875	875	875	875	875	875	875	875	875	875	878	880	880	880	882	882	882	885	885	885	887	887	887	889	889	889	889	889	891	894	894	896	901	903	908	913	915	918	920	920	920	928	1050	1047	1047	1047	1047	1044	1041	1038	1038	1031	1028	1028	1025	1022	1019	1016	1013	1010	1007	1004	1001	998	995	995	992	992	984	981	981	975	973	970	970	964	964	959	954	951	948	946	943	940	938	938	935	935	928	925	923	920	913	910	908	903	898	898	898	894	889	889	887	887	887	887	887	885	885	887	887	889	887	887	887	887	887	887	889	889	889	889	891	891	891	891	20000	20000	20000	20000	20000	20000	20000	20000	20000	20000	20000	20000	20000	2349	2349	2333	2333	2349	2349	2349	2349	2333	2333	2349	2349	2349	2365	2365	2365	2365	2365	2381	2398	2398	2398	2398	2398	2415	20000	20000	20000	20000	20000	20000
20000	20000	20000	20000	20000	20000	1245	1245	1250	1250	1250	1250	1250	1250	1255	1255	1255	1259	1259	1264	1264	1264	1264	1268	1268	1268	1268	1268	1268	1268	1268	1273	1273	1278	1278	1278	1283	1283	1283	1283	1288	1288	1288	1288	1288	1288	1288	1288	1288	1292	1288	1288	1292	1297	1297	1297	1302	1302	1302	1307	1307	1307	1307	1312	1307	1307	1307	1307	1307	1307	1312	1312	1317	1317	1317	1317	1317	1317	1322	1322	1322	1322	1322	1322	1322	1328	1328	1328	1328	1328	1333	1333	1333	1338	1338	1338	1338	1343	1343	1343	1343	1343	1343	1343	1343	1349	1354	1354	1359	1359	1359	1359	1359	1359	1359	1359	1365	1370	1381	1381	1381	1028	1028	1031	1031	1031	1034	1034	1038	1038	1041	1044	1044	1044	1398	1398	1398	1398	1398	1398	1398	1404	1398	1398	1398	1404	1404	1404	1404	1410	1410	1410	1410	1410	1410	1410	1415	1415	1415	1421	1421	1427	1427	1433	1433	1433	1433	1439	1439	1439	1445	1445	1445	1445	1445	1445	1445	1452	1452	1452	1458	1458	1464	1464	1464	1464	1464	1470	1470	1470	1470	1477	1477	1477	1477	1483	1483	1483	1489	1489	1489	1489	1496	1496	1496	1496	1503	1503	1503	1503	1509	1509	1516	1516	1516	1523	1523	1523	1523	1516	1516	1516	1516	1516	1523	1523	1523	1523	1523	1523	1529	1536	1536	1536	1543	1543	1543	1543	1543	1550	1550	1550	1550	1550	1550	1550	1550	1550	1557	1564	1564	1564	1564	1564	1572	1572	1572	1579	1579	1579	1579	1586	1586	1586	1594	1594	1594	1594	1601	1601	1601	1601	1601	1601	1601	1609	1609	1609	1609	1609	1609	1616	1616	1616	1624	1624	1624	1632	1632	1632	1632	1639	1639	1639	1639	1639	1647	1647	1639	1639	1639	1647	1647	1655	1655	1655	1655	20000	20000	20000	20000	1047	1047	1047	1041	1041	1041	1038	1038	1034	1031	1028	1025	1025	1025	1025	1022	1022	1019	1013	1010	1007	1007	1007	959	956	956	954	948	946	943	940	938	938	935	935	933	930	925	923	923	923	923	920	918	918	915	913	913	910	908	906	906	903	903	901	901	898	898	896	896	894	894	894	894	891	891	889	889	889	887	887	887	887	885	885	885	885	885	885	885	882	882	882	880	880	875	875	875	875	873	873	873	873	873	873	875	875	875	878	880	882	882	882	885	885	885	885	885	885	885	885	885	882	882	882	882	882	882	882	882	880	878	878	875	875	875	875	875	875	875	875	875	878	880	880	880	882	882	882	885	885	887	887	887	889	889	889	889	889	889	891	894	894	898	901	903	908	910	915	918	920	920	920	1050	1050	1050	1050	1047	1044	1041	1038	1034	1034	1031	1028	1025	1025	1022	1019	1016	1013	1010	1007	1004	1001	998	995	995	992	989	984	981	981	975	973	970	967	964	964	954	954	951	948	948	946	940	938	935	935	930	923	923	920	918	913	910	906	901	898	898	896	891	889	887	885	885	885	885	887	885	885	887	887	887	887	887	887	887	889	889	889	889	889	891	891	891	891	891	20000	20000	20000	20000	20000	20000	20000	20000	20000	20000	20000	20000	20000	2349	2349	2333	2333	2333	2333	2349	2349	2349	2349	2349	2349	2349	2365	2365	2365	2365	2365	2365	2381	2398	2398	2415	2415	2415	20000	20000	20000	20000	20000	20000
20000	20000	20000	20000	20000	20000	1245	1245	1245	1250	1250	1250	1250	1250	1255	1255	1259	1259	1259	1259	1264	1264	1264	1264	1264	1264	1268	1268	1268	1268	1268	1273	1273	1278	1278	1278	1283	1283	1283	1283	1283	1283	1288	1288	1288	1288	1288	1288	1288	1292	1288	1288	1292	1297	1297	1302	1302	1302	1302	1307	1307	1307	1307	1312	1307	1307	1307	1307	1307	1307	1312	1312	1317	1317	1317	1317	1317	1322	1322	1322	1322	1322	1322	1322	1322	1322	1322	1328	1328	1328	1333	1333	1338	1338	1338	1338	1338	1343	1343	1343	1343	1343	1343	1343	1343	1349	1354	1354	1359	1359	1359	1359	1359	1359	1359	1359	1365	1365	1365	1022	1028	1028	1028	1031	1031	1031	1034	1034	1034	1038	1044	1047	1047	1398	1398	1398	1398	1398	1398	1398	1398	1404	1398	1398	1398	1404	1404	1404	1404	1410	1410	1410	1410	1410	1410	1410	1415	1415	1415	1421	1421	1427	1427	1427	1427	1433	1433	1439	1439	1439	1445	1445	1445	1445	1445	1445	1445	1445	1452	1452	1452	1458	1458	1464	1464	1464	1464	1470	1470	1470	1470	1477	1477	1477	1477	1477	1483	1483	1489	1489	1489	1489	1496	1496	1496	1496	1503	1503	1503	1503	1509	1509	1516	1516	1523	1523	1523	1523	1523	1516	1516	1516	1516	1516	1523	1523	1523	1523	1523	1529	1529	1529	1529	1536	1536	1543	1543	1543	1543	1550	1550	1550	1550	1550	1550	1550	1550	1550	1557	1557	1557	1564	1564	1564	1564	1572	1572	1572	1579	1579	1579	1579	1579	1586	1594	1594	1594	1594	1601	1601	1601	1601	1601	1601	1601	1609	1609	1609	1609	1609	1609	1609	1616	1616	1624	1624	1624	1632	1632	1632	1632	1639	1639	1639	1639	1639	1647	1647	1639	1639	1639	1647	1647	1655	1655	1655	1655	1655	20000	20000	20000	1047	1047	1044	1041	1041	1038	1038	1034	1034	1028	1025	1025	1025	1025	1022	1022	1019	1019	1013	1010	1007	1007	1007	959	956	954	951	948	946	943	940	940	938	935	933	933	930	925	923	923	923	920	918	918	915	915	913	910	910	908	906	906	903	903	903	898	898	896	896	896	894	894	894	891	891	889	889	889	889	887	887	887	887	885	882	882	882	885	882	882	882	882	882	882	880	878	875	875	873	873	873	873	873	873	873	873	873	875	878	880	880	882	882	882	885	885	885	885	885	885	882	882	882	882	882	882	882	882	882	882	880	880	878	878	878	875	875	875	875	875	878	878	878	880	882	882	882	882	885	885	885	887	887	887	889	889	891	891	891	891	894	896	896	898	901	903	908	910	915	918	918	920	920	1050	1050	1050	1050	1047	1044	1041	1034	1034	1031	1031	1028	1025	1022	1019	1016	1016	1013	1013	1007	1004	1001	998	995	992	992	989	984	981	978	975	973	970	967	964	962	954	954	951	948	948	946	940	938	935	930	928	923	920	920	918	913	910	906	901	898	898	896	887	885	885	885	885	885	885	887	885	885	887	887	887	887	887	887	887	889	889	889	889	891	891	891	891	891	891	20000	20000	20000	20000	20000	20000	20000	20000	20000	20000	20000	20000	20000	2349	2349	2349	2349	2333	2333	2333	2349	2349	2349	2349	2349	2349	2365	2365	2365	2365	2365	2365	2381	2398	2398	2415	2415	2415	20000	20000	20000	20000	20000	20000
20000	20000	20000	20000	20000	20000	1245	1245	1245	1250	1250	1250	1250	1250	1255	1255	1259	1259	1259	1259	1264	1264	1264	1264	1264	1264	1268	1268	1268	1268	1268	1273	1273	1278	1278	1278	1283	1283	1283	1283	1283	1283	1288	1288	1288	1288	1288	1288	1288	1292	1292	1292	1292	1297	1297	1297	1302	1302	1302	1307	1307	1307	1307	1312	1307	1307	1307	1307	1312	1312	1312	1312	1317	1317	1317	1317	1322	1322	1322	1322	1322	1322	1322	1322	1322	1322	1322	1328	1328	1328	1333	1333	1338	1338	1338	1338	1338	1343	1343	1343	1343	1343	1343	1343	1349	1349	1354	1354	1354	1359	1359	1359	1359	1359	1359	1359	1365	1365	1365	1022	1022	1025	1028	1028	1031	1031	1031	1031	1034	1034	1044	1044	1398	1398	1398	1398	1398	1398	1398	1398	1398	1404	1398	1398	1398	1404	1404	1404	1404	1410	1410	1410	1410	1410	1410	1410	1415	1415	1415	1421	1421	1427	1427	1427	1427	1433	1433	1439	1439	1439	1445	1445	1445	1445	1445	1445	1445	1445	1452	1452	1452	1458	1458	1464	1464	1464	1464	1470	1470	1470	1470	1477	1477	1477	1477	1477	1483	1483	1489	1489	1489	1489	1496	1496	1496	1496	1503	1503	1503	1503	1503	1509	1509	1516	1523	1523	1523	1523	1523	1516	1516	1516	1516	1516	1523	1523	1523	1523	1523	1523	1529	1529	1529	1536	1536	1536	1543	1543	1543	1550	1550	1550	1550	1550	1550	1550	1550	1550	1557	1557	1557	1564	1564	1564	1564	1572	1572	1572	1579	1579	1579	1579	1579	1586	1594	1594	1594	1594	1601	1601	1601	1601	1601	1601	1601	1609	1609	1609	1609	1609	1609	1609	1616	1616	1616	1624	1624	1632	1632	1632	1639	1639	1639	1639	1639	1647	1647	1647	1639	1639	1647	1647	1655	1655	1655	1655	1663	20000	20000	20000	20000	1047	1047	1044	1041	1038	1038	1034	1034	1031	1028	1025	1025	1022	1022	1022	1019	1019	1019	1013	1010	1007	1007	1007	959	956	954	951	946	946	943	940	940	938	935	933	930	928	925	923	923	923	920	918	915	915	915	913	910	910	908	906	906	903	903	903	898	898	896	896	894	894	894	894	891	891	889	889	889	889	887	887	887	887	885	882	882	882	882	882	882	882	882	882	882	880	878	875	875	873	873	871	871	873	873	873	873	873	875	878	880	880	882	882	882	885	885	885	885	885	885	882	882	882	882	882	882	882	882	882	882	882	882	880	878	878	878	875	875	875	875	878	878	880	880	882	882	882	882	885	885	885	887	887	889	889	889	891	891	891	891	896	896	896	901	901	903	908	910	915	918	918	920	920	1054	1054	1054	1054	1050	1044	1038	1034	1034	1031	1031	1028	1025	1022	1019	1016	1013	1013	1010	1004	1001	998	998	995	992	992	987	981	978	978	975	973	970	964	964	959	954	951	951	948	948	943	940	935	935	928	925	923	920	920	915	908	908	908	901	896	896	896	885	885	885	885	885	885	885	887	885	885	887	887	887	887	887	887	887	889	889	889	889	889	891	891	891	889	889	20000	20000	20000	20000	20000	20000	20000	20000	20000	20000	20000	20000	20000	2349	2349	2349	2349	2333	2333	2333	2349	2349	2349	2349	2349	2349	2365	2365	2365	2381	2381	2381	2398	2398	2398	2415	2415	2415	20000	20000	20000	20000	20000	20000
20000	20000	20000	20000	20000	20000	1245	1245	1250	1250	1250	1250	1250	1255	1255	1255	1259	1259	1259	1264	1264	1264	1264	1264	1264	1268	1268	1268	1268	1268	1268	1268	1273	1278	1278	1283	1283	1283	1283	1283	1283	1283	1288	1288	1288	1288	1288	1288	1288	1292	1292	1292	1292	1297	1297	1297	1302	1302	1302	1307	1307	1307	1307	1307	1307	1307	1307	1307	1312	1312	1312	1317	1317	1317	1317	1317	1317	1317	1322	1322	1322	1322	1322	1322	1322	1322	1322	1328	1328	1328	1333	1333	1338	1338	1338	1338	1338	1343	1343	1343	1343	1343	1343	1343	1349	1349	1349	1354	1354	1359	1359	1359	1359	1359	1359	1359	1365	1365	1022	1022	1022	1025	1028	1028	1031	1031	1031	1031	1034	1034	1034	1387	1398	1398	1398	1398	1398	1398	1398	1398	1398	1398	1398	1398	1398	1398	1404	1404	1404	1410	1410	1410	1410	1410	1410	1410	1415	1415	1415	1421	1421	1427	1427	1427	1427	1427	1433	1433	1445	1445	1445	1445	1445	1445	1445	1445	1445	1445	1452	1452	1452	1452	1458	1458	1458	1464	1464	1470	1470	1470	1470	1470	1477	1477	1477	1477	1483	1483	1489	1489	1489	1489	1489	1496	1496	1496	1503	1503	1503	1503	1503	1509	1509	1516	1523	1523	1523	1523	1523	1516	1516	1516	1516	1516	1516	1523	1523	1523	1523	1523	1523	1523	1529	1536	1536	1536	1543	1543	1543	1550	1550	1550	1550	1550	1550	1550	1550	1550	1557	1557	1557	1564	1564	1564	1564	1572	1572	1572	1579	1579	1579	1579	1579	1586	1594	1594	1594	1594	1601	1601	1601	1601	1601	1601	1601	1601	1609	1609	1609	1609	1609	1609	1616	1616	1616	1624	1624	1632	1632	1632	1639	1639	1639	1647	1647	1647	1647	1647	1639	1639	1647	1647	1655	1655	1655	1655	1655	20000	20000	20000	20000	1047	1047	1044	1041	1038	1038	1034	1034	1031	1028	1025	1025	1022	1022	1022	1019	1019	1016	1010	1007	1007	1007	1007	959	956	951	948	946	943	943	940	938	935	933	933	928	928	925	923	923	923	920	918	915	915	915	913	910	908	908	906	906	906	906	903	898	896	896	896	894	894	894	894	891	891	889	889	889	887	887	887	887	887	885	882	882	882	882	882	882	882	882	882	882	880	878	875	875	873	871	871	871	871	871	871	873	873	875	878	878	880	882	882	882	885	885	885	885	885	885	882	882	885	885	885	885	885	882	882	882	882	882	880	880	878	878	878	875	875	878	878	878	880	880	882	882	882	882	885	885	885	889	889	889	891	891	891	891	894	894	898	898	898	901	901	903	908	910	915	918	920	920	1050	1050	1054	1054	1050	1047	1041	1038	1034	1031	1031	1028	1028	1022	1022	1019	1016	1013	1013	1010	1004	1001	998	998	995	992	989	984	981	978	978	975	973	967	964	962	959	954	951	951	948	948	943	938	935	935	928	923	920	920	920	915	908	906	906	901	894	894	896	885	885	885	885	885	885	885	887	887	887	887	887	887	887	887	887	887	889	889	889	889	889	891	891	891	889	889	20000	20000	20000	20000	20000	20000	20000	20000	20000	20000	20000	20000	20000	2349	2349	2349	2349	2349	2333	2333	2349	2349	2349	2349	2349	2349	2365	2365	2365	2365	2365	2381	2398	2398	2398	2415	2415	2415	20000	20000	20000	20000	20000	20000
20000	20000	20000	20000	20000	20000	1245	1245	1250	1250	1250	1250	1250	1255	1255	1255	1259	1259	1259	1264	1264	1264	1264	1264	1264	1268	1268	1268	1268	1268	1268	1268	1273	1278	1278	1283	1283	1283	1283	1283	1283	1283	1283	1288	1288	1288	1288	1288	1288	1292	1292	1292	1292	1297	1297	1302	1302	1302	1302	1307	1307	1307	1307	1307	1302	1302	1307	1307	1307	1312	1312	1317	1317	1317	1317	1317	1317	1317	1322	1322	1322	1322	1322	1322	1322	1322	1322	1322	1328	1328	1333	1333	1338	1338	1338	1338	1338	1343	1343	1343	1343	1343	1343	1343	1349	1349	1349	1354	1359	1359	1359	1359	1359	1359	1359	1359	1359	1028	1022	1022	1025	1025	1028	1028	1031	1031	1031	1031	1031	1034	1034	1387	1387	1387	1392	1398	1398	1398	1398	1398	1398	1398	1398	1398	1398	1398	1404	1404	1404	1410	1410	1410	1410	1410	1410	1410	1415	1415	1421	1421	1421	1427	1427	1427	1427	1427	1433	1433	1439	1439	1445	1445	1445	1445	1445	1445	1445	1445	1452	1452	1452	1452	1458	1458	1458	1464	1464	1470	1470	1470	1470	1470	1477	1477	1477	1477	1483	1483	1489	1489	1489	1489	1489	1496	1496	1496	1496	1496	1503	1503	1503	1503	1509	1516	1516	1516	1516	1516	1523	1516	1516	1516	1516	1516	1516	1516	1523	1523	1523	1523	1523	1523	1529	1536	1536	1536	1536	1543	1543	1550	1550	1550	1550	1550	1550	1550	1550	1550	1557	1557	1557	1564	1564	1564	1564	1572	1572	1572	1579	1579	1579	1579	1579	1586	1594	1594	1594	1594	1594	1601	1601	1601	1601	1601	1601	1601	1609	1609	1609	1609	1609	1609	1616	1616	1616	1624	1624	1632	1632	1632	1639	1639	1639	1639	1647	1647	1647	1655	1647	1647	1647	1647	1655	1655	1655	1655	1655	20000	20000	20000	20000	1044	1044	1044	1041	1038	1038	1034	1034	1031	1028	1025	1025	1022	1022	1019	1019	1016	1013	1010	1007	1007	1007	962	962	956	951	948	946	943	940	938	938	935	933	930	928	928	925	923	923	923	920	918	915	915	915	913	910	908	908	906	906	906	906	903	898	896	896	896	894	894	894	894	891	891	889	889	889	887	887	887	887	887	885	882	882	882	882	882	882	882	882	882	882	880	878	875	873	873	871	871	871	871	871	871	871	873	875	875	878	880	882	882	882	885	885	885	885	885	885	882	882	885	885	885	885	885	882	882	882	882	882	882	880	880	880	878	878	878	878	878	880	880	880	882	882	882	882	885	885	887	889	889	891	891	891	891	894	894	894	898	898	898	901	903	906	908	913	915	918	920	920	1050	1050	1054	1050	1050	1047	1041	1038	1034	1031	1031	1028	1025	1022	1022	1019	1016	1013	1013	1010	1004	1001	998	995	995	989	987	984	981	978	978	975	973	967	967	962	954	954	951	948	948	948	940	938	935	933	925	920	920	920	918	915	908	906	906	898	894	894	896	891	882	882	882	885	885	885	887	887	887	887	887	887	887	887	887	887	887	889	889	889	889	891	891	891	891	20000	20000	20000	20000	20000	20000	20000	20000	20000	20000	20000	20000	20000	20000	2349	2349	2349	2349	2349	2349	2349	2349	2349	2349	2349	2349	2349	2349	2365	2365	2365	2365	2381	2398	2398	2415	2415	2415	2415	20000	20000	20000	20000	20000	20000
20000	20000	20000	20000	20000	20000	1245	1245	1250	1250	1250	1250	1250	1255	1255	1255	1259	1259	1259	1264	1264	1264	1264	1264	1264	1268	1268	1268	1268	1268	1268	1273	1273	1278	1278	1283	1283	1283	1283	1283	1283	1283	1283	1283	1283	1288	1288	1288	1288	1292	1292	1292	1292	1297	1297	1302	1302	1302	1302	1307	1307	1307	1307	1307	1302	1302	1302	1302	1307	1307	1312	1312	1317	1317	1317	1317	1317	1317	1317	1317	1322	1322	1322	1322	1322	1322	1322	1322	1328	1328	1328	1333	1333	1338	1338	1338	1338	1343	1343	1343	1343	1343	1343	1343	1349	1349	1349	1354	1359	1359	1359	1359	1359	1359	1365	1365	1025	1025	1025	1025	1025	1025	1028	1028	1031	1031	1031	1031	1031	1034	20000	1381	1381	1381	1387	1392	1392	1398	1398	1398	1398	1398	1398	1398	1398	1398	1398	1404	1404	1404	1404	1404	1404	1410	1410	1410	1415	1415	1421	1421	1421	1427	1427	1427	1427	1433	1433	1433	1439	1439	1445	1445	1445	1445	1445	1445	1445	1445	1452	1452	1452	1452	1458	1458	1458	1464	1464	1464	1470	1470	1470	1470	1470	1477	1477	1477	1477	1483	1483	1483	1489	1489	1489	1489	1496	1496	1496	1496	1503	1503	1503	1503	1509	1509	1516	1516	1516	1516	1523	1516	1516	1516	1516	1516	1516	1516	1523	1523	1523	1523	1523	1523	1529	1529	1536	1536	1536	1543	1543	1543	1550	1550	1550	1550	1550	1550	1550	1550	1557	1557	1557	1564	1564	1564	1564	1572	1572	1572	1579	1579	1579	1579	1586	1594	1594	1594	1594	1594	1594	1594	1601	1601	1601	1601	1601	1601	1609	1609	1609	1609	1609	1609	1616	1616	1616	1624	1624	1632	1632	1632	1632	1639	1639	1639	1647	1647	1647	1655	1647	1647	1647	1647	1655	1655	1663	1663	1663	20000	20000	20000	20000	1044	1044	1041	1038	1038	1034	1034	1034	1031	1028	1028	1025	1022	1022	1019	1016	1013	1013	1007	1007	1004	1004	962	959	956	951	948	943	943	940	938	935	933	933	930	928	925	923	923	923	920	918	918	915	915	913	913	908	908	906	906	906	906	903	901	898	896	896	896	894	894	894	891	891	891	889	887	887	887	887	887	887	887	885	885	882	882	882	882	882	882	882	882	882	880	878	875	873	873	871	869	869	871	869	869	871	871	873	875	878	878	880	880	882	882	882	882	882	882	885	882	882	885	885	885	885	885	882	882	882	882	882	882	880	880	880	882	880	880	880	880	882	882	882	882	885	885	885	885	887	887	889	889	891	891	891	894	894	894	896	898	898	898	903	903	906	908	913	915	918	920	920	1054	1054	1050	1050	1047	1044	1041	1038	1034	1031	1031	1025	1022	1019	1019	1016	1016	1013	1013	1007	1001	998	998	995	992	987	984	984	981	978	978	975	970	967	962	959	954	951	951	948	948	948	940	938	938	933	923	920	920	918	915	913	908	906	906	898	894	894	894	891	882	882	882	885	885	885	887	887	887	887	887	887	887	887	887	887	887	889	889	889	889	889	889	889	889	20000	20000	20000	20000	20000	20000	20000	20000	20000	20000	20000	20000	20000	20000	2349	2349	2333	2333	2333	2333	2349	2349	2349	2349	2349	2349	2349	2349	2365	2365	2381	2381	2398	2398	2398	2415	2415	2415	2415	20000	20000	20000	20000	20000	20000
20000	20000	20000	20000	20000	20000	1245	1245	1245	1245	1245	1250	1250	1250	1255	1255	1259	1259	1259	1259	1264	1264	1264	1264	1264	1264	1268	1268	1268	1268	1268	1268	1273	1278	1278	1283	1283	1283	1283	1283	1283	1283	1283	1283	1283	1288	1288	1288	1292	1292	1292	1292	1297	1297	1297	1297	1297	1302	1302	1302	1307	1307	1307	1307	1302	1302	1302	1302	1307	1307	1312	1312	1312	1312	1317	1317	1317	1317	1317	1317	1322	1322	1322	1322	1322	1322	1322	1322	1328	1328	1328	1328	1333	1333	1338	1338	1338	1338	1343	1343	1343	1343	1343	1343	1343	1349	1354	1354	1359	1359	1359	1365	1365	1365	1365	1025	1025	1025	1025	1025	1025	1025	1028	1028	1028	1031	1031	1031	1031	20000	1387	1387	1381	1381	1387	1392	1392	1398	1398	1398	1398	1398	1398	1398	1398	1398	1398	1404	1404	1404	1404	1404	1404	1410	1410	1410	1415	1415	1421	1421	1421	1427	1427	1427	1427	1427	1433	1433	1439	1439	1445	1445	1445	1445	1445	1445	1445	1445	1452	1452	1452	1452	1458	1458	1458	1464	1464	1464	1470	1470	1470	1470	1470	1477	1477	1477	1477	1483	1483	1483	1489	1489	1489	1489	1496	1496	1496	1496	1503	1503	1503	1503	1503	1509	1516	1509	1509	1516	1523	1516	1516	1516	1516	1516	1516	1523	1523	1523	1523	1523	1523	1523	1529	1529	1536	1536	1536	1536	1543	1543	1550	1550	1550	1550	1550	1550	1550	1550	1557	1557	1557	1564	1564	1572	1572	1572	1572	1572	1572	1579	1579	1579	1579	1586	1594	1594	1594	1594	1594	1594	1601	1601	1601	1601	1601	1601	1609	1609	1609	1609	1609	1609	1616	1616	1616	1616	1624	1632	1632	1632	1632	1632	1639	1639	1639	1639	1647	1647	1647	1647	1647	1647	1655	1655	1663	1655	1655	20000	20000	20000	20000	1044	1044	1041	1038	1038	1034	1034	1031	1031	1031	1028	1025	1022	1022	1019	1016	1013	1010	1007	1007	1004	1004	959	959	956	951	948	943	943	940	935	935	933	930	930	925	925	923	923	920	920	918	918	915	915	913	913	908	908	906	906	906	906	903	901	898	896	896	896	894	894	894	891	891	889	889	887	887	887	887	887	887	887	885	885	882	882	882	882	882	882	880	880	880	880	878	875	873	873	871	869	869	869	869	869	869	871	873	873	875	878	880	880	882	882	882	882	882	882	885	882	882	885	885	885	885	885	882	882	882	882	882	882	882	882	882	882	882	882	882	882	882	882	882	885	885	885	885	887	887	887	889	891	891	891	891	894	894	894	896	898	901	901	903	906	906	910	913	918	920	923	1054	1054	1050	1050	1047	1044	1044	1041	1038	1031	1031	1028	1025	1022	1019	1019	1016	1016	1013	1010	1007	1001	998	995	992	989	987	984	981	978	975	973	970	967	962	959	956	954	951	951	948	948	948	935	935	933	930	923	920	920	918	915	913	908	906	906	901	896	896	894	891	882	882	882	885	885	885	885	885	885	887	887	887	887	887	887	887	887	889	889	889	889	889	889	887	887	20000	20000	20000	20000	20000	20000	20000	20000	20000	20000	20000	20000	20000	20000	20000	20000	2333	2333	2333	2333	2333	2349	2349	2349	2349	2349	2349	2365	2365	2381	2381	2381	2398	2398	2398	2415	2415	2415	2415	20000	20000	20000	20000	20000	20000
20000	20000	20000	20000	20000	20000	1245	1245	1245	1245	1245	1250	1250	1250	1255	1255	1259	1259	1259	1259	1259	1264	1264	1264	1264	1264	1264	1268	1268	1268	1268	1268	1278	1278	1283	1283	1283	1283	1283	1283	1283	1283	1283	1283	1283	1288	1288	1288	1292	1292	1292	1292	1292	1297	1297	1297	1297	1297	1302	1302	1302	1307	1307	1307	1302	1302	1302	1302	1307	1307	1312	1312	1312	1312	1317	1317	1317	1317	1317	1317	1322	1322	1322	1322	1322	1322	1322	1322	1328	1328	1328	1328	1333	1333	1338	1338	1338	1338	1343	1343	1343	1343	1343	1343	1343	1349	1354	1354	1359	1359	1359	1365	1365	1022	1022	1022	1025	1025	1025	1025	1025	1025	1025	1025	1028	1028	1028	1031	20000	1387	1387	1387	1387	1387	1387	1392	1392	1398	1398	1398	1398	1398	1398	1398	1398	1398	1398	1404	1404	1404	1404	1404	1410	1410	1410	1415	1415	1415	1421	1421	1421	1421	1421	1427	1427	1427	1427	1433	1433	1439	1439	1445	1445	1445	1445	1445	1445	1445	1452	1452	1452	1452	1458	1458	1464	1464	1464	1470	1470	1470	1470	1470	1470	1477	1477	1477	1477	1483	1483	1483	1489	1489	1489	1489	1496	1496	1496	1496	1503	1503	1503	1503	1503	1509	1509	1509	1509	1509	1516	1516	1516	1516	1516	1516	1516	1516	1523	1523	1523	1523	1523	1523	1529	1529	1536	1536	1536	1536	1543	1543	1543	1550	1550	1550	1550	1550	1550	1550	1557	1557	1557	1564	1564	1572	1572	1572	1572	1572	1572	1579	1579	1579	1579	1586	1594	1594	1601	1594	1594	1594	1601	1601	1601	1601	1601	1601	1609	1609	1609	1609	1609	1609	1616	1616	1616	1616	1624	1632	1632	1632	1632	1632	1632	1639	1639	1639	1639	1647	1639	1639	1647	1647	1647	1655	1663	1655	1655	20000	20000	20000	20000	1044	1044	1041	1038	1034	1034	1034	1031	1031	1031	1028	1025	1022	1022	1016	1013	1010	1010	1007	1004	1004	964	959	959	954	948	946	946	943	940	935	935	933	928	928	925	925	923	920	920	920	918	918	915	915	913	913	910	908	908	906	906	906	903	898	898	896	896	896	894	894	894	891	891	889	889	887	887	887	887	887	887	887	885	885	885	882	882	882	882	882	880	880	880	878	878	878	875	873	871	871	871	869	869	869	869	869	873	873	875	875	880	880	882	882	882	882	882	882	885	885	885	885	885	885	885	885	885	882	882	882	882	880	880	880	882	882	882	882	882	882	882	882	885	885	885	885	885	887	887	887	889	891	891	891	891	891	894	896	896	901	901	901	903	906	908	910	915	918	920	923	1050	1050	1050	1047	1047	1044	1044	1041	1038	1031	1031	1028	1025	1022	1019	1019	1016	1013	1013	1010	1007	1001	998	995	992	989	987	984	981	978	975	973	970	964	959	956	954	954	951	951	948	948	946	935	933	930	928	923	920	920	918	913	910	908	906	906	901	896	896	896	889	882	882	882	885	885	885	885	885	885	885	885	887	887	887	887	887	887	887	887	887	887	887	887	887	887	887	20000	20000	20000	20000	20000	20000	20000	20000	20000	20000	20000	20000	20000	20000	20000	2333	2333	2333	2333	2333	2349	2349	2349	2349	2349	2349	2365	2365	2381	2381	2381	2381	2381	2381	2398	2398	2415	2415	20000	20000	20000	20000	20000	20000
20000	20000	20000	20000	20000	20000	1245	1245	1245	1245	1245	1250	1250	1250	1255	1255	1255	1259	1259	1259	1259	1264	1264	1264	1264	1264	1264	1268	1268	1268	1268	1268	1278	1283	1283	1283	1283	1283	1283	1283	1283	1283	1283	1283	1283	1288	1288	1288	1292	1292	1292	1292	1292	1292	1292	1292	1292	1297	1302	1302	1302	1307	1307	1307	1302	1302	1302	1302	1302	1307	1312	1312	1312	1312	1317	1317	1317	1317	1317	1317	1322	1322	1322	1322	1322	1322	1322	1322	1328	1328	1328	1333	1333	1338	1338	1338	1338	1338	1343	1343	1343	1343	1343	1343	1343	1349	1354	1354	1359	1359	1365	1365	1022	1022	1022	1022	1025	1025	1025	1025	1025	1025	1025	1025	1028	1028	1028	20000	1028	20000	1387	1387	1387	1387	1387	1392	1392	1398	1398	1398	1398	1398	1398	1398	1398	1398	1398	1404	1404	1404	1404	1404	1410	1410	1410	1415	1415	1415	1421	1421	1421	1421	1421	1427	1427	1427	1427	1433	1433	1433	1439	1439	1445	1445	1445	1445	1445	1445	1445	1445	1452	1452	1458	1458	1464	1464	1470	1470	1470	1470	1470	1470	1470	1477	1477	1477	1477	1483	1483	1483	1489	1489	1489	1489	1489	1496	1496	1496	1503	1503	1503	1503	1503	1509	1509	1509	1509	1509	1516	1516	1516	1516	1516	1516	1516	1516	1516	1523	1523	1523	1529	1529	1536	1536	1536	1536	1536	1536	1543	1543	1543	1550	1550	1550	1550	1550	1550	1550	1557	1557	1557	1564	1564	1572	1572	1572	1572	1572	1572	1572	1572	1579	1579	1586	1594	1594	1601	1594	1594	1594	1601	1601	1601	1601	1601	1601	1601	1601	1609	1609	1609	1609	1616	1616	1616	1624	1624	1632	1632	1632	1632	1632	1632	1639	1639	1639	1639	1647	1639	1639	1647	1647	1647	1655	1655	1655	1655	20000	20000	20000	20000	1044	1044	1038	1038	1034	1034	1034	1031	1031	1031	1028	1025	1022	1022	1016	1013	1010	1007	1007	1004	967	964	962	959	954	948	946	943	940	938	935	933	930	928	928	925	925	923	920	920	918	918	915	915	915	913	913	910	908	906	906	906	903	903	898	898	896	896	896	894	894	894	894	891	889	887	887	887	887	887	885	885	887	885	885	885	882	882	882	882	880	880	880	880	878	875	875	875	873	873	871	871	869	869	869	869	869	871	873	873	875	880	880	882	882	882	882	882	882	885	885	885	885	885	885	885	885	885	882	882	882	882	880	880	880	882	882	882	882	882	882	882	882	885	885	885	885	885	887	887	887	889	891	891	891	891	891	894	896	896	901	901	901	903	906	908	910	915	918	920	923	1050	1050	1050	1047	1044	1044	1044	1041	1038	1031	1031	1028	1025	1022	1019	1016	1013	1010	1010	1007	1004	998	995	995	992	989	984	984	981	978	975	973	970	962	959	956	954	954	951	948	948	948	946	938	930	930	928	925	920	920	918	913	910	908	906	903	901	896	896	896	889	882	882	882	882	885	885	885	885	885	885	885	887	887	887	887	887	887	887	887	887	887	887	887	885	885	885	20000	20000	20000	20000	20000	20000	20000	20000	20000	20000	20000	20000	20000	20000	20000	2333	2333	2333	2333	2333	2349	2349	2349	2349	2365	2365	2365	2365	2365	2381	2381	2381	2381	2381	2398	2398	2415	2415	20000	20000	20000	20000	20000	20000
20000	20000	20000	20000	20000	20000	1245	1245	1245	1245	1245	1250	1250	1250	1255	1255	1255	1255	1259	1259	1259	1264	1264	1264	1264	1264	1268	1268	1268	1268	1268	1268	1278	1278	1283	1283	1283	1283	1283	1283	1283	1283	1283	1283	1283	1288	1288	1288	1292	1292	1292	1292	1292	1292	1292	1292	1292	1297	1302	1302	1302	1307	1307	1307	1302	1302	1302	1302	1302	1307	1312	1312	1312	1312	1312	1317	1317	1317	1317	1317	1317	1322	1322	1322	1322	1322	1322	1328	1328	1328	1328	1333	1333	1338	1338	1338	1338	1338	1343	1343	1343	1343	1343	1343	1343	1349	1354	1354	1354	1359	1365	1365	1022	1022	1022	1022	1022	1022	1025	1025	1025	1025	1025	1025	1028	1028	1028	1028	20000	1381	1381	1381	1387	1387	1387	1387	1392	1392	1398	1398	1398	1398	1398	1398	1398	1398	1398	1404	1404	1404	1404	1404	1404	1410	1410	1415	1415	1415	1421	1421	1421	1421	1421	1427	1427	1427	1427	1433	1433	1433	1439	1439	1445	1445	1445	1445	1445	1445	1445	1445	1452	1452	1458	1458	1458	1458	1464	1464	1470	1470	1470	1470	1470	1477	1477	1477	1477	1483	1483	1483	1489	1489	1489	1489	1489	1489	1496	1496	1496	1503	1503	1503	1503	1503	1509	1509	1509	1516	1516	1516	1516	1516	1516	1516	1516	1516	1516	1523	1523	1523	1523	1529	1536	1536	1536	1536	1536	1536	1543	1543	1543	1550	1550	1550	1550	1550	1550	1557	1557	1557	1564	1572	1572	1572	1572	1572	1572	1572	1572	1572	1572	1579	1579	1586	1594	1594	1594	1594	1594	1594	1601	1601	1601	1601	1601	1601	1601	1601	1609	1609	1609	1609	1616	1616	1616	1624	1624	1632	1632	1632	1632	1632	1632	1639	1639	1639	1639	1639	1639	1639	1639	1647	1647	1655	1655	1655	1655	20000	20000	20000	20000	1041	1041	1038	1038	1034	1034	1034	1031	1031	1031	1028	1025	1025	1022	1016	1010	1010	1007	1007	1004	967	964	962	959	954	951	946	943	938	935	933	933	930	928	928	925	923	920	920	920	918	915	915	915	913	913	913	910	908	906	906	906	903	903	898	898	896	896	896	896	894	894	891	891	889	887	887	887	887	887	885	885	887	885	885	882	882	882	882	880	880	880	878	878	878	875	875	875	873	873	871	871	869	869	869	869	869	871	873	873	875	878	880	880	882	882	882	882	882	885	885	885	885	885	885	885	885	885	882	882	882	882	880	880	880	882	882	882	882	882	885	885	885	885	885	885	885	885	887	887	887	889	891	891	891	891	894	894	896	898	901	901	901	901	906	908	913	918	918	920	923	923	1047	1047	1044	1044	1044	1044	1041	1038	1034	1034	1031	1022	1019	1019	1016	1013	1010	1010	1007	1004	998	995	995	989	987	984	981	981	978	978	973	964	962	956	954	954	951	951	948	948	946	943	935	930	930	928	925	920	920	918	913	910	908	908	903	898	894	894	894	889	882	882	882	882	882	882	882	882	882	885	885	885	887	887	887	887	887	887	887	887	887	887	887	885	885	885	20000	20000	20000	20000	20000	20000	20000	20000	20000	20000	20000	20000	20000	20000	20000	2333	2333	2333	2349	2349	2349	2349	2349	2349	2349	2365	2365	2365	2365	2365	2365	2381	2381	2381	2398	2415	2415	2432	20000	20000	20000	20000	20000	20000
20000	20000	20000	20000	20000	20000	1245	1245	1245	1245	1245	1250	1250	1250	1255	1255	1255	1255	1255	1255	1259	1259	1264	1264	1264	1264	1268	1268	1268	1268	1268	1268	1278	1278	1278	1283	1283	1283	1283	1283	1283	1283	1283	1283	1283	1288	1288	1288	1292	1292	1292	1292	1292	1292	1292	1292	1292	1297	1302	1302	1302	1307	1307	1307	1302	1302	1302	1302	1302	1307	1307	1307	1307	1307	1312	1312	1312	1312	1317	1317	1317	1322	1322	1322	1322	1322	1322	1328	1328	1328	1328	1333	1333	1333	1338	1338	1338	1338	1338	1343	1343	1343	1343	1343	1349	1349	1354	1354	1354	1359	1359	1019	1022	1022	1022	1022	1022	1022	1025	1025	1025	1025	1025	1025	1028	20000	1028	20000	1381	1381	1381	1381	1387	1387	1387	1387	1392	1392	1398	1398	1398	1398	1398	1398	1398	1398	1398	1404	1404	1404	1404	1404	1404	1410	1410	1410	1415	1415	1415	1421	1421	1421	1421	1427	1427	1427	1427	1427	1433	1433	1439	1439	1445	1445	1445	1445	1445	1445	1445	1452	1452	1452	1452	1452	1458	1458	1464	1464	1470	1470	1470	1470	1470	1477	1477	1477	1477	1477	1483	1483	1489	1489	1489	1489	1489	1489	1496	1496	1496	1503	1503	1503	1503	1503	1503	1509	1509	1509	1516	1516	1516	1516	1516	1516	1516	1516	1523	1523	1523	1523	1523	1529	1536	1536	1536	1536	1536	1536	1536	1543	1543	1550	1550	1550	1550	1557	1557	1557	1557	1557	1564	1572	1572	1572	1572	1572	1572	1572	1572	1572	1572	1579	1579	1579	1594	1594	1594	1601	1594	1594	1601	1601	1601	1601	1601	1601	1601	1601	1609	1609	1609	1616	1616	1616	1624	1624	1624	1632	1632	1632	1632	1632	1632	1632	1639	1639	1639	1639	1639	1639	1639	1647	1647	1647	1655	1655	1655	20000	20000	20000	20000	1041	1038	1034	1034	1034	1034	1031	1031	1028	1028	1028	1025	1025	1022	1013	1007	1007	1004	1004	1004	967	964	962	956	954	951	948	940	938	935	933	933	930	928	928	925	923	920	918	918	915	915	913	913	913	913	913	910	908	908	906	906	903	903	898	898	896	896	896	896	894	894	891	891	889	887	887	887	887	887	885	885	887	885	885	882	882	882	880	880	880	880	878	878	878	875	875	875	873	873	871	871	871	869	869	869	869	871	873	875	875	878	880	880	882	882	882	882	882	885	885	885	885	885	885	885	885	882	882	882	880	880	880	880	880	882	882	882	882	882	885	885	885	885	885	885	885	885	887	887	887	889	891	891	891	891	894	896	896	901	901	901	901	901	908	910	915	918	920	920	923	1050	1047	1047	1044	1044	1044	1041	1041	1038	1034	1031	1028	1022	1019	1019	1016	1013	1010	1007	1004	1001	998	995	992	987	987	984	981	981	978	978	970	964	959	954	954	954	951	951	948	948	946	940	935	930	930	928	925	920	920	918	915	910	908	908	903	898	894	894	894	889	882	882	882	882	882	882	882	882	882	882	882	885	885	885	885	885	885	885	885	887	887	887	887	885	885	20000	20000	20000	20000	20000	20000	20000	20000	20000	20000	20000	20000	20000	20000	20000	20000	2333	2317	2317	2333	2333	2349	2349	2349	2349	2349	2365	2365	2365	2365	2365	2365	2381	2381	2381	2415	2415	2415	2432	20000	20000	20000	20000	20000	20000
20000	20000	20000	20000	20000	20000	1245	1245	1245	1245	1245	1250	1250	1250	1255	1255	1255	1255	1255	1255	1259	1259	1264	1264	1264	1264	1268	1268	1268	1268	1268	1273	1273	1278	1278	1278	1278	1278	1283	1283	1283	1283	1283	1283	1283	1288	1288	1288	1288	1288	1288	1288	1288	1288	1292	1292	1292	1297	1302	1302	1302	1307	1307	1307	1302	1302	1302	1302	1302	1302	1307	1307	1307	1307	1312	1312	1312	1312	1317	1317	1322	1322	1322	1322	1322	1322	1328	1328	1328	1328	1333	1333	1333	1333	1338	1338	1338	1338	1338	1343	1343	1343	1343	1343	1349	1349	1349	1354	1359	1359	1359	1019	1019	1019	1022	1022	1022	1022	1022	1022	1025	1025	1025	1025	1025	1025	20000	20000	1381	1381	1381	1381	1387	1387	1387	1387	1392	1392	1398	1398	1398	1398	1398	1398	1398	1398	1404	1404	1404	1404	1404	1404	1404	1410	1410	1410	1415	1415	1415	1421	1421	1421	1421	1427	1427	1427	1427	1427	1427	1433	1433	1433	1439	1445	1445	1445	1445	1445	1445	1445	1452	1452	1452	1452	1452	1458	1464	1464	1464	1470	1470	1470	1470	1477	1477	1477	1477	1477	1483	1483	1489	1489	1489	1489	1489	1496	1496	1496	1496	1503	1503	1503	1503	1503	1503	1509	1509	1509	1516	1516	1516	1516	1516	1516	1516	1516	1523	1523	1523	1523	1523	1523	1529	1529	1536	1536	1536	1536	1536	1543	1543	1550	1550	1550	1550	1550	1557	1557	1557	1557	1564	1572	1572	1572	1572	1572	1572	1572	1572	1572	1572	1572	1579	1579	1579	1586	1594	1594	1594	1594	1601	1601	1601	1601	1601	1601	1601	1601	1609	1609	1609	1616	1616	1616	1624	1624	1624	1632	1632	1632	1632	1632	1632	1632	1639	1639	1639	1639	1639	1639	1639	1639	1647	1647	1647	1655	1655	20000	20000	20000	20000	1041	1038	1034	1034	1034	1034	1031	1028	1028	1028	1025	1025	1022	1019	1013	1007	1007	1004	1001	1001	964	964	959	956	954	951	943	938	935	935	933	930	928	925	925	923	923	920	918	918	915	915	913	913	913	913	910	908	908	906	906	903	903	903	901	898	898	898	896	896	894	894	894	891	889	887	887	887	887	887	885	885	885	882	882	882	882	882	880	880	880	880	880	878	878	875	875	875	873	873	873	871	871	869	869	869	869	871	873	873	875	878	878	880	882	882	882	882	882	885	885	885	885	885	885	885	885	882	882	882	880	880	880	880	880	880	882	882	882	882	882	885	885	885	885	885	885	885	887	887	887	889	891	891	891	891	894	896	898	901	901	901	901	903	908	910	915	918	920	920	923	1050	1047	1044	1044	1044	1044	1041	1041	1038	1034	1031	1028	1022	1019	1016	1013	1010	1007	1007	1004	1001	998	995	992	987	987	984	981	978	978	975	967	962	959	954	954	951	951	948	948	946	946	938	935	933	930	928	925	920	918	918	915	913	908	908	903	901	894	894	891	887	882	882	882	882	882	882	882	880	880	882	882	885	885	885	885	885	885	885	885	887	887	887	887	885	885	20000	20000	20000	20000	20000	20000	20000	20000	20000	20000	20000	20000	20000	20000	20000	20000	20000	2317	2317	2333	2333	2349	2349	2349	2349	2349	2365	2365	2365	2365	2365	2381	2381	2381	2381	2398	2398	2415	2432	20000	20000	20000	20000	20000	20000
20000	20000	20000	20000	20000	20000	1245	1245	1245	1245	1250	1250	1250	1250	1250	1250	1250	1250	1255	1255	1259	1259	1264	1264	1264	1264	1268	1268	1268	1268	1268	1268	1273	1278	1278	1278	1278	1278	1283	1283	1283	1283	1283	1288	1288	1288	1288	1288	1288	1288	1288	1288	1288	1288	1292	1292	1292	1297	1302	1302	1302	1307	1307	1307	1302	1302	1302	1302	1302	1302	1307	1307	1307	1307	1312	1312	1317	1317	1317	1317	1322	1322	1322	1328	1322	1322	1328	1328	1328	1333	1333	1333	1338	1338	1338	1338	1338	1338	1338	1343	1343	1343	1343	1343	1343	1349	1349	1354	1359	1359	1019	1019	1019	1019	1019	1022	1022	1022	1022	1022	1025	1025	1025	20000	20000	20000	1381	20000	1381	1381	1381	1381	1387	1387	1387	1387	1392	1392	1398	1398	1398	1398	1398	1398	1398	1398	1404	1404	1404	1404	1404	1404	1404	1410	1410	1410	1415	1415	1415	1421	1421	1421	1421	1427	1427	1427	1427	1427	1427	1433	1433	1433	1439	1439	1439	1439	1439	1439	1445	1445	1445	1452	1452	1452	1452	1458	1458	1464	1464	1470	1470	1470	1470	1477	1477	1477	1477	1483	1483	1483	1489	1489	1489	1489	1496	1496	1496	1496	1496	1503	1503	1503	1503	1503	1503	1509	1509	1516	1516	1516	1516	1516	1516	1516	1516	1516	1523	1523	1523	1523	1523	1523	1529	1529	1536	1536	1536	1536	1543	1543	1543	1550	1550	1550	1550	1550	1550	1557	1564	1564	1564	1572	1572	1572	1572	1572	1572	1572	1572	1572	1572	1572	1579	1579	1579	1579	1579	1579	1594	1594	1594	1594	1601	1601	1601	1601	1601	1609	1609	1609	1609	1616	1616	1616	1616	1624	1624	1624	1624	1632	1632	1632	1632	1639	1639	1639	1639	1647	1639	1639	1639	1639	1647	1647	1647	1647	1655	20000	20000	20000	20000	1038	1038	1034	1034	1034	1031	1031	1028	1028	1025	1025	1025	1022	1019	1013	1007	1007	1001	992	989	964	962	956	954	951	948	940	935	935	935	933	930	928	925	925	923	923	920	918	915	915	913	913	913	913	913	910	908	908	906	906	903	903	903	903	901	898	896	896	894	894	894	891	891	889	887	887	887	887	887	885	885	885	882	882	882	882	882	880	880	880	880	880	878	878	875	875	875	873	873	873	871	871	869	869	869	869	871	873	873	875	878	878	880	880	882	882	882	882	882	885	885	885	885	885	885	885	885	882	882	882	882	880	880	880	880	880	882	882	882	882	882	885	885	885	885	885	885	887	887	887	889	891	891	891	891	894	896	898	901	903	901	901	903	908	910	915	918	918	920	923	1050	1047	1044	1044	1044	1041	1041	1038	1038	1031	1031	1028	1022	1019	1016	1013	1007	1007	1004	1001	998	995	992	989	987	984	981	978	975	975	973	964	962	959	954	954	951	951	948	948	946	943	938	933	930	930	928	923	920	918	918	915	913	908	908	901	898	894	891	889	887	882	882	882	882	882	882	882	880	880	880	880	882	885	885	885	885	885	885	887	887	887	885	885	885	885	20000	20000	20000	20000	20000	20000	20000	20000	20000	20000	20000	20000	20000	20000	20000	20000	20000	20000	2333	2333	2349	2349	2349	2333	2333	2349	2365	2365	2365	2365	2365	2381	2381	2381	2381	2398	2398	2415	2415	20000	20000	20000	20000	20000	20000
20000	20000	20000	20000	20000	20000	1245	1245	1245	1245	1250	1250	1250	1250	1250	1250	1250	1250	1255	1255	1259	1259	1264	1264	1264	1264	1268	1268	1268	1268	1268	1268	1273	1278	1278	1278	1278	1278	1278	1283	1283	1283	1283	1288	1288	1288	1288	1288	1288	1288	1288	1288	1288	1288	1292	1292	1292	1297	1302	1302	1302	1307	1307	1307	1302	1302	1302	1302	1302	1307	1307	1307	1307	1307	1312	1312	1317	1317	1317	1317	1322	1322	1322	1328	1328	1328	1328	1333	1333	1333	1333	1333	1338	1338	1338	1338	1338	1338	1338	1338	1343	1343	1343	1343	1343	1349	1349	1349	1359	1359	1019	1019	1019	1019	1019	1019	1019	1022	1022	1022	1022	1022	1370	1387	20000	1381	1381	1381	1381	1381	1381	1387	1387	1387	1387	1392	1392	1392	1398	1398	1398	1398	1398	1398	1398	1398	1404	1404	1404	1404	1404	1404	1410	1410	1410	1415	1415	1415	1415	1421	1421	1421	1421	1427	1427	1427	1427	1433	1433	1433	1433	1433	1439	1439	1439	1439	1439	1439	1445	1445	1445	1452	1452	1452	1452	1458	1458	1458	1464	1470	1470	1470	1470	1477	1477	1477	1477	1477	1483	1483	1489	1489	1489	1496	1496	1496	1496	1503	1503	1503	1503	1503	1503	1503	1503	1509	1509	1516	1516	1516	1516	1516	1516	1516	1523	1523	1523	1523	1523	1523	1523	1529	1536	1536	1536	1536	1536	1543	1543	1543	1543	1550	1550	1550	1550	1550	1550	1557	1564	1564	1564	1572	1572	1572	1572	1572	1572	1572	1572	1572	1572	1572	1579	1579	1579	1579	1579	1579	1586	1594	1594	1594	1601	1601	1601	1601	1601	1609	1609	1609	1609	1616	1616	1616	1616	1624	1624	1624	1624	1632	1632	1632	1632	1639	1639	1639	1647	1647	1639	1639	1647	1647	1647	1647	1647	1647	20000	20000	20000	20000	20000	1038	1038	1034	1031	1031	1031	1028	1025	1025	1025	1022	1022	1019	1019	1013	1010	1007	1001	992	989	964	959	954	951	948	948	938	935	935	935	933	930	928	925	925	923	923	920	918	915	915	913	913	913	913	913	910	908	908	906	906	906	903	903	903	901	898	896	896	894	894	894	891	891	889	887	887	887	887	887	885	885	885	882	882	882	882	880	880	880	880	880	880	878	878	875	875	875	873	873	871	871	869	869	869	869	869	869	873	873	875	878	878	880	880	882	882	882	882	882	882	885	885	885	885	885	885	885	885	882	882	882	880	880	880	880	880	880	882	882	882	882	885	885	885	885	885	885	887	887	889	889	891	891	891	891	894	896	898	901	903	903	903	908	908	910	915	918	918	920	923	1050	1047	1044	1044	1041	1041	1041	1038	1034	1031	1028	1028	1025	1019	1016	1013	1007	1004	1004	1001	998	995	992	989	987	984	981	978	975	973	970	964	962	959	954	954	951	951	948	948	946	940	938	933	930	928	928	923	920	918	918	915	910	908	908	901	896	894	891	889	887	882	882	880	880	880	880	882	880	880	880	880	882	882	882	882	885	885	885	887	887	887	885	885	885	885	20000	20000	20000	20000	20000	20000	20000	20000	20000	20000	20000	20000	20000	20000	20000	20000	20000	2301	2301	2333	2349	2349	2349	2333	2333	2349	2349	2365	2365	2365	2365	2381	2381	2381	2381	2415	2415	2415	2415	20000	20000	20000	20000	20000	20000
20000	20000	20000	20000	20000	20000	1250	1250	1250	1250	1250	1250	1250	1250	1250	1250	1250	1250	1255	1255	1259	1259	1264	1264	1264	1264	1268	1268	1268	1268	1268	1268	1273	1278	1278	1278	1278	1278	1278	1283	1283	1283	1283	1288	1288	1288	1288	1288	1288	1288	1288	1288	1288	1288	1292	1292	1297	1302	1302	1302	1307	1307	1307	1307	1302	1302	1302	1302	1302	1302	1307	1307	1307	1307	1312	1312	1312	1317	1317	1317	1322	1322	1322	1328	1328	1328	1328	1333	1333	1338	1333	1333	1338	1338	1338	1338	1338	1338	1338	1338	1343	1343	1343	1343	1343	1349	1349	1349	1349	1354	1019	1019	1019	1019	1019	1019	1019	1022	1022	1022	1365	1387	1370	1387	1387	1381	1381	1381	1381	1381	1381	1387	1387	1392	1392	1392	1392	1392	1392	1398	1398	1398	1398	1398	1398	1398	1404	1404	1404	1404	1404	1410	1410	1410	1410	1415	1415	1415	1421	1421	1421	1421	1421	1427	1427	1427	1433	1433	1433	1433	1433	1433	1433	1433	1433	1439	1439	1445	1445	1445	1445	1452	1452	1452	1452	1458	1458	1458	1458	1470	1470	1470	1470	1477	1477	1477	1477	1477	1483	1483	1489	1489	1489	1496	1496	1496	1496	1496	1496	1503	1503	1503	1503	1503	1503	1509	1509	1516	1516	1516	1516	1516	1516	1516	1516	1523	1523	1523	1523	1523	1529	1529	1529	1536	1536	1536	1536	1543	1543	1543	1550	1550	1550	1550	1550	1550	1550	1557	1564	1564	1564	1572	1572	1572	1572	1572	1572	1572	1572	1572	1572	1572	1579	1579	1579	1579	1579	1579	1586	1594	1594	1594	1594	1601	1601	1601	1601	1609	1609	1609	1609	1616	1616	1616	1616	1624	1624	1624	1624	1632	1632	1632	1632	1639	1639	1639	1647	1647	1647	1647	1647	1647	1639	1639	1647	1647	20000	20000	20000	20000	20000	1034	1034	1031	1031	1031	1028	1028	1025	1025	1022	1022	1022	1019	1019	1013	1010	1007	1001	992	992	964	959	951	948	948	946	938	935	935	935	933	930	928	928	925	923	920	918	918	915	913	913	913	913	913	910	910	908	908	906	906	906	903	903	903	901	898	896	896	894	894	891	891	889	889	887	887	887	885	885	885	885	885	882	882	882	880	880	880	880	880	878	878	875	875	875	875	873	873	873	871	871	869	869	869	869	869	869	873	873	875	875	878	880	880	882	882	882	882	882	882	882	882	885	885	885	885	885	885	882	882	882	882	880	880	880	880	880	882	882	882	885	885	885	885	885	885	885	887	887	889	889	891	891	891	894	894	898	901	901	903	903	903	906	910	910	915	918	920	920	923	923	1047	1044	1044	1041	1041	1038	1038	1034	1031	1028	1028	1025	1019	1016	1010	1007	1004	1004	1001	998	995	992	989	987	984	981	978	975	973	970	964	962	962	956	954	951	951	948	946	943	940	938	933	930	928	925	920	918	915	915	910	908	903	901	898	896	891	891	889	887	882	882	880	880	880	880	882	880	880	880	880	882	882	882	882	885	885	885	887	887	887	887	887	887	20000	20000	20000	20000	20000	20000	20000	20000	20000	20000	20000	20000	20000	20000	20000	20000	20000	2301	2301	2301	2333	2333	2333	2349	2333	2333	2349	2349	2349	2365	2365	2381	2381	2381	2398	2398	2415	2415	2415	2415	20000	20000	20000	20000	20000	20000
20000	20000	20000	20000	20000	20000	1245	1245	1245	1245	1250	1250	1250	1250	1250	1250	1250	1255	1255	1255	1259	1264	1264	1264	1264	1264	1268	1268	1268	1268	1268	1268	1273	1273	1273	1278	1278	1278	1278	1283	1283	1283	1283	1288	1288	1288	1288	1288	1288	1288	1288	1288	1288	1288	1292	1297	1302	1302	1302	1307	1307	1307	1307	1307	1302	1302	1302	1302	1302	1302	1307	1307	1307	1307	1312	1312	1312	1317	1317	1322	1322	1322	1322	1328	1328	1328	1328	1333	1333	1333	1333	1333	1338	1338	1338	1338	1338	1338	1338	1338	1343	1343	1343	1343	1343	1343	1349	1349	1354	1354	1019	1019	1019	1019	1019	1019	1019	1022	1365	1365	1365	1387	1370	1370	1370	1381	1381	1381	1381	1381	1381	1387	1387	1387	1392	1392	1392	1392	1392	1398	1398	1398	1398	1398	1398	1398	1404	1404	1404	1404	1404	1404	1410	1410	1410	1415	1415	1415	1421	1421	1421	1421	1421	1421	1427	1427	1433	1433	1433	1433	1433	1433	1433	1433	1433	1439	1439	1439	1445	1445	1452	1452	1452	1452	1452	1458	1458	1458	1458	1464	1470	1470	1470	1470	1477	1477	1477	1477	1483	1483	1489	1489	1489	1489	1496	1496	1496	1496	1496	1503	1503	1503	1503	1503	1509	1509	1516	1516	1516	1516	1516	1516	1516	1516	1516	1523	1523	1523	1523	1523	1523	1529	1529	1536	1536	1536	1536	1543	1543	1543	1550	1550	1550	1550	1550	1550	1550	1550	1564	1564	1564	1572	1572	1572	1572	1572	1572	1572	1572	1572	1572	1572	1579	1579	1579	1579	1579	1579	1586	1594	1601	1594	1594	1594	1601	1601	1601	1609	1609	1609	1609	1616	1616	1616	1616	1624	1624	1624	1624	1624	1632	1632	1632	1632	1639	1639	1647	1647	1639	1639	1647	1647	1639	1639	1647	1647	20000	20000	20000	20000	20000	1034	1034	1031	1031	1031	1028	1028	1025	1025	1022	1022	1019	1016	1016	1010	1007	1004	998	995	995	995	951	951	946	946	943	938	935	935	935	933	930	928	928	925	923	920	918	915	915	913	913	913	913	913	910	910	908	908	906	906	906	903	903	903	901	898	896	896	894	894	891	891	889	889	887	887	887	885	885	885	885	885	882	882	882	880	880	880	880	880	878	878	875	875	875	873	873	873	873	871	871	869	869	869	869	869	869	871	873	873	875	878	878	880	880	880	880	880	880	882	882	882	885	885	885	885	885	885	885	882	882	882	882	880	880	882	882	882	882	882	885	885	885	885	885	885	885	887	887	889	891	891	891	894	894	896	898	901	903	903	903	903	906	910	913	915	918	920	920	920	1047	1047	1044	1044	1041	1041	1038	1038	1034	1031	1028	1025	1022	1019	1016	1010	1004	1004	1001	998	995	992	992	987	984	984	981	975	973	970	967	964	962	962	956	954	951	951	946	946	940	938	938	933	930	928	925	920	918	915	915	910	908	903	901	896	894	891	891	889	885	882	880	880	880	880	880	882	880	880	880	880	882	882	882	882	882	882	885	887	887	887	887	887	887	20000	20000	20000	20000	20000	20000	20000	20000	20000	20000	20000	20000	20000	20000	20000	20000	20000	2301	2301	2301	2317	2317	2317	2333	2333	2333	2333	2349	2349	2365	2365	2381	2398	2415	2415	2415	2415	2415	2415	2415	20000	20000	20000	20000	20000	20000
20000	20000	20000	20000	20000	20000	1245	1245	1245	1245	1250	1250	1250	1250	1250	1250	1250	1255	1255	1255	1259	1264	1264	1264	1264	1264	1268	1268	1268	1268	1268	1268	1273	1273	1273	1273	1273	1278	1278	1283	1283	1283	1283	1288	1288	1288	1288	1288	1288	1288	1288	1288	1288	1292	1292	1297	1302	1302	1302	1307	1307	1307	1307	1307	1302	1302	1302	1302	1302	1302	1307	1307	1307	1307	1307	1307	1312	1317	1317	1322	1322	1322	1322	1322	1322	1328	1328	1333	1333	1333	1333	1333	1338	1338	1338	1338	1338	1338	1338	1338	1343	1343	1343	1343	1343	1343	1343	1349	1354	1354	1359	1359	1019	1019	1019	1022	1022	1022	1365	1365	1365	1370	1370	1370	1370	1370	1376	1376	1376	1381	1381	1387	1387	1387	1387	1392	1392	1392	1392	1392	1398	1398	1398	1398	1398	1398	1398	1398	1404	1404	1404	1404	1410	1410	1410	1415	1415	1415	1421	1421	1421	1421	1421	1421	1427	1427	1433	1433	1433	1433	1439	1439	1439	1433	1433	1439	1439	1439	1445	1445	1452	1452	1452	1452	1452	1458	1458	1458	1464	1464	1470	1470	1470	1470	1477	1477	1477	1477	1477	1483	1483	1489	1489	1489	1496	1496	1496	1496	1496	1496	1503	1503	1503	1503	1509	1509	1509	1516	1516	1516	1516	1516	1516	1516	1516	1523	1523	1523	1523	1523	1523	1523	1523	1529	1536	1536	1536	1543	1543	1543	1543	1543	1550	1550	1550	1550	1550	1550	1564	1564	1564	1572	1572	1572	1572	1572	1572	1572	1572	1572	1572	1572	1579	1579	1579	1579	1579	1579	1594	1594	1601	1594	1594	1594	1601	1601	1601	1601	1609	1609	1609	1609	1616	1616	1616	1624	1624	1624	1624	1624	1632	1632	1632	1632	1639	1639	1647	1647	1639	1639	1647	1647	1647	1647	1655	1655	20000	20000	20000	20000	1038	1034	1034	1031	1031	1031	1028	1025	1025	1022	1022	1019	1016	1013	1013	1007	1004	1001	998	995	995	995	946	946	946	946	943	938	935	935	935	933	930	928	925	925	920	918	918	915	915	913	913	913	913	913	910	910	908	908	906	906	906	903	903	903	901	898	896	896	894	894	891	891	889	889	887	887	887	885	885	885	885	885	882	882	882	880	880	880	880	878	878	878	875	875	875	873	873	873	873	871	871	869	869	869	869	869	869	871	871	873	875	875	878	878	880	880	880	880	880	882	882	882	882	882	885	885	885	885	885	882	882	882	882	880	880	882	882	882	882	882	885	885	885	885	885	885	885	887	889	891	891	891	891	894	894	896	901	901	903	903	903	903	908	910	913	913	918	920	920	920	1047	1047	1044	1044	1041	1041	1038	1034	1031	1028	1025	1025	1019	1016	1013	1010	1004	1004	1001	998	995	992	989	987	984	981	978	975	970	970	967	964	962	959	956	954	951	948	946	943	940	938	938	935	930	928	925	920	915	915	913	908	906	901	901	896	894	891	891	889	885	882	880	880	880	880	880	882	880	880	880	880	882	882	882	882	882	882	885	885	887	887	887	887	887	20000	20000	20000	20000	20000	20000	20000	20000	20000	20000	20000	20000	20000	20000	20000	20000	2333	2301	2301	2301	2317	2317	2317	2333	2333	2333	2333	2349	2349	2365	2365	2381	2381	2398	2398	2398	2415	2415	2415	2415	20000	20000	20000	20000	20000	20000
20000	20000	20000	20000	20000	20000	1245	1245	1245	1245	1250	1250	1250	1250	1250	1250	1255	1255	1255	1259	1264	1264	1264	1264	1264	1264	1268	1268	1268	1268	1268	1268	1273	1273	1273	1273	1273	1278	1278	1283	1283	1283	1283	1283	1288	1288	1288	1288	1288	1288	1288	1288	1288	1292	1292	1302	1302	1302	1302	1307	1307	1307	1307	1307	1302	1302	1302	1302	1302	1302	1302	1302	1302	1307	1307	1307	1312	1317	1317	1322	1322	1322	1322	1322	1322	1328	1328	1333	1333	1333	1333	1333	1338	1338	1338	1338	1338	1338	1338	1338	1338	1338	1343	1343	1343	1343	1343	1349	1354	1354	1359	1359	1359	1022	1022	1359	1359	1365	1365	1365	1365	1370	1370	1370	1370	1370	1376	1376	1376	1381	1381	1387	1387	1387	1387	1392	1392	1392	1392	1392	1398	1398	1398	1398	1398	1398	1398	1398	1404	1404	1404	1404	1410	1410	1410	1415	1415	1415	1421	1421	1421	1421	1421	1427	1427	1427	1433	1433	1433	1433	1439	1439	1439	1439	1439	1439	1439	1445	1445	1445	1452	1452	1452	1452	1452	1458	1458	1464	1464	1464	1470	1470	1470	1470	1477	1477	1477	1477	1477	1483	1483	1489	1489	1489	1489	1489	1496	1496	1496	1496	1503	1503	1503	1503	1509	1509	1509	1516	1516	1516	1516	1516	1516	1523	1523	1523	1523	1523	1523	1523	1523	1523	1523	1529	1536	1536	1536	1543	1543	1543	1543	1543	1550	1550	1550	1550	1550	1550	1564	1564	1564	1572	1572	1572	1572	1572	1572	1572	1564	1564	1572	1572	1579	1579	1579	1579	1579	1579	1586	1586	1586	1594	1594	1594	1601	1601	1601	1601	1609	1609	1609	1609	1616	1616	1616	1624	1624	1624	1624	1624	1632	1632	1632	1632	1639	1639	1639	1647	1639	1639	1647	1647	1647	1647	1655	20000	20000	20000	20000	20000	1034	1031	1031	1031	1031	1028	1025	1025	1025	1019	1019	1016	1013	1010	1010	1007	1004	1001	998	998	998	998	946	946	946	946	943	938	935	935	935	933	930	928	925	923	920	918	918	915	915	913	913	913	913	913	910	910	908	908	906	906	906	903	903	903	901	898	896	896	894	894	891	891	889	889	887	887	887	885	885	885	885	882	882	880	880	880	880	880	880	878	878	878	875	875	875	873	873	873	873	873	871	871	869	869	869	867	867	869	869	871	873	875	875	878	880	878	878	878	878	880	880	880	882	882	882	882	882	882	882	885	885	885	882	882	882	882	882	882	882	882	885	885	885	885	887	887	887	889	889	891	891	891	891	894	894	896	901	901	903	903	903	903	908	910	910	913	918	920	920	948	1044	1044	1041	1038	1034	1034	1031	1028	1025	1025	1022	1019	1019	1016	1013	1007	1004	1001	998	995	992	992	989	984	981	981	978	975	970	970	964	962	959	959	956	954	948	948	946	943	938	938	938	935	930	925	925	918	913	913	910	908	906	901	901	896	894	891	889	889	887	882	882	880	880	880	880	882	880	880	880	880	882	882	880	880	880	882	882	882	885	887	887	887	887	20000	20000	20000	20000	20000	20000	20000	20000	20000	20000	20000	20000	20000	20000	20000	2333	2333	2317	2317	2317	2317	2333	2333	2349	2333	2333	2349	2349	2349	2365	2365	2381	2381	2398	2398	2398	2398	2415	2415	2415	20000	20000	20000	20000	20000	20000
20000	20000	20000	20000	20000	20000	1245	1245	1245	1245	1245	1245	1250	1250	1250	1250	1255	1255	1259	1259	1264	1264	1264	1264	1264	1264	1268	1268	1268	1268	1268	1268	1273	1273	1273	1273	1273	1278	1278	1283	1283	1283	1283	1283	1288	1288	1288	1288	1288	1288	1292	1292	1292	1292	1297	1302	1302	1302	1302	1307	1307	1307	1307	1307	1302	1302	1302	1302	1302	1302	1302	1302	1302	1307	1307	1312	1312	1317	1317	1322	1322	1322	1322	1322	1322	1328	1328	1333	1333	1333	1333	1333	1338	1338	1338	1338	1338	1338	1338	1338	1338	1338	1338	1343	1343	1343	1343	1349	1349	1354	1354	1359	1359	1359	1359	1359	1359	1365	1365	1365	1365	1365	1370	1370	1370	1370	1376	1376	1381	1381	1381	1381	1387	1387	1387	1387	1387	1392	1392	1392	1392	1398	1398	1398	1398	1398	1398	1398	1404	1404	1404	1404	1404	1410	1410	1410	1415	1415	1421	1421	1421	1421	1421	1427	1427	1427	1433	1439	1439	1439	1439	1439	1439	1439	1439	1439	1439	1445	1445	1445	1452	1452	1452	1452	1452	1458	1458	1464	1464	1464	1470	1470	1470	1470	1470	1477	1477	1477	1477	1483	1483	1489	1489	1489	1489	1489	1496	1496	1496	1496	1496	1503	1503	1503	1509	1509	1509	1509	1516	1516	1516	1516	1516	1523	1523	1523	1523	1523	1523	1529	1523	1523	1529	1536	1543	1536	1536	1543	1543	1543	1543	1543	1550	1550	1550	1550	1550	1550	1564	1564	1564	1572	1572	1572	1572	1572	1572	1572	1564	1564	1572	1572	1579	1579	1579	1579	1579	1586	1586	1586	1586	1586	1586	1594	1601	1601	1601	1601	1609	1609	1609	1609	1616	1616	1616	1616	1624	1624	1624	1624	1632	1632	1632	1632	1632	1639	1639	1639	1639	1639	1647	1647	1647	1647	1655	20000	20000	20000	20000	20000	1034	1031	1031	1031	1028	1028	1025	1025	1022	1019	1016	1013	1013	1010	1010	1007	1004	1001	998	998	998	954	954	948	946	946	943	938	935	935	935	930	928	925	925	923	920	918	915	915	915	913	913	913	913	913	910	910	908	906	906	906	906	903	903	903	901	898	896	894	894	894	891	891	889	887	887	885	885	885	885	885	885	882	882	880	880	880	880	880	880	880	878	878	875	875	875	873	873	873	873	871	871	871	869	869	867	867	867	869	869	871	873	875	875	875	878	878	878	878	878	880	880	880	882	882	882	882	882	882	882	885	885	885	882	882	882	882	882	882	885	885	885	885	885	887	887	887	887	889	891	891	891	891	894	894	894	896	901	901	903	903	903	903	906	908	910	913	918	923	948	948	948	951	951	1034	1034	1034	1031	1028	1025	1022	1022	1019	1016	1016	1013	1007	1001	1001	995	995	992	989	987	984	981	981	978	975	973	967	964	962	959	959	956	954	948	946	943	940	938	938	935	933	928	923	920	915	910	910	908	908	906	901	901	896	894	889	889	889	887	885	882	880	880	880	880	880	880	880	880	880	880	880	880	880	880	880	880	880	880	880	882	882	885	887	20000	20000	20000	20000	20000	20000	20000	20000	20000	20000	20000	20000	20000	2333	2333	2333	2317	2317	2317	2333	2333	2349	2349	2333	2333	2349	2365	2365	2365	2365	2381	2398	2398	2398	2398	2398	2398	2415	2415	20000	20000	20000	20000	20000	20000
20000	20000	20000	20000	20000	20000	1245	1245	1245	1245	1245	1245	1245	1245	1250	1250	1255	1255	1259	1259	1264	1264	1264	1264	1264	1268	1268	1268	1268	1268	1268	1268	1273	1273	1273	1273	1273	1278	1278	1278	1278	1283	1283	1283	1283	1288	1288	1288	1288	1288	1292	1292	1292	1292	1297	1302	1302	1302	1302	1307	1307	1307	1307	1307	1302	1302	1302	1302	1302	1302	1307	1302	1302	1302	1307	1312	1312	1317	1317	1317	1322	1322	1322	1322	1322	1328	1328	1333	1333	1333	1333	1333	1338	1338	1338	1338	1338	1338	1338	1338	1338	1338	1338	1343	1343	1343	1343	1349	1349	1354	1354	1359	1359	1359	1359	1359	1359	1365	1365	1365	1365	1365	1365	1365	1370	1381	1376	1376	1381	1381	1381	1381	1387	1387	1387	1387	1387	1387	1387	1392	1392	1398	1398	1398	1398	1398	1404	1404	1404	1404	1404	1404	1404	1404	1410	1410	1415	1415	1415	1421	1421	1421	1421	1421	1427	1427	1433	1439	1439	1439	1439	1439	1439	1439	1439	1439	1439	1445	1445	1445	1452	1452	1452	1452	1458	1458	1464	1464	1464	1464	1470	1470	1470	1470	1470	1477	1477	1477	1483	1483	1483	1489	1489	1489	1489	1489	1496	1496	1496	1496	1496	1503	1503	1503	1503	1509	1509	1509	1509	1516	1516	1516	1516	1523	1523	1523	1523	1523	1523	1529	1529	1529	1529	1536	1543	1536	1536	1543	1543	1543	1543	1543	1543	1550	1550	1550	1550	1550	1557	1557	1564	1564	1564	1564	1572	1572	1572	1572	1572	1572	1572	1572	1579	1579	1579	1579	1586	1586	1586	1586	1586	1586	1586	1594	1601	1601	1601	1609	1609	1609	1609	1609	1616	1616	1616	1616	1616	1624	1624	1624	1624	1632	1632	1632	1632	1639	1639	1639	1639	1639	1647	1647	1647	1647	1655	20000	20000	20000	20000	20000	1031	1031	1028	1028	1028	1025	1025	1025	1022	1019	1016	1013	1013	1010	1007	1004	1001	1001	998	998	998	954	954	951	946	946	943	938	935	935	935	930	928	925	923	920	918	918	915	915	915	913	913	913	913	910	910	910	908	906	906	906	906	903	903	903	901	898	896	894	894	894	891	889	889	887	887	885	885	885	885	885	885	885	880	880	880	880	880	880	880	880	878	875	875	875	875	873	873	873	873	871	871	869	869	869	867	867	867	869	869	869	871	875	875	875	878	878	878	878	878	878	880	880	882	882	882	882	882	882	882	885	882	882	882	882	882	882	882	885	885	885	885	885	887	887	889	889	889	891	891	891	891	891	894	894	896	896	901	901	903	903	903	903	906	908	910	913	918	930	933	943	948	951	951	1034	1034	1034	1031	1028	1025	1022	1019	1019	1016	1016	1013	1007	1001	998	995	995	992	989	987	984	981	981	978	975	970	967	964	962	956	956	954	951	948	946	943	940	935	935	935	933	925	920	915	913	910	910	908	906	906	901	901	896	894	889	889	889	887	885	880	880	880	880	880	880	880	880	880	880	880	880	880	880	880	878	878	880	880	880	882	882	885	887	20000	20000	20000	20000	20000	20000	20000	20000	20000	20000	20000	20000	20000	2333	2333	2317	2317	2317	2317	2333	2333	2349	2349	2333	2333	2349	2365	2365	2365	2365	2381	2381	2381	2381	2398	2398	2398	2415	2415	20000	20000	20000	20000	20000	20000
